ply
format ascii 1.0
element vertex 286
property float x
property float y
property float z
property uchar red
property uchar green
property uchar blue
end_header
-4.050606 -0.344521 22.208530 231 201 175
-3.819496 -0.369868 21.481684 226 200 175
-5.712296 11.406178 32.300602 45 41 30
-4.477127 -0.645881 25.443035 149 118 89
-5.302169 5.898794 30.200102 99 74 52
-3.935985 -0.362669 22.427729 88 63 41
-5.042762 4.912374 28.856482 90 78 64
-4.925370 3.946177 28.261786 82 72 60
-5.326271 6.783441 30.628757 161 163 142
-3.905834 -0.412521 22.427080 214 195 178
-3.905834 -0.412521 22.427080 214 195 178
-5.252726 6.979711 30.236813 141 140 119
-5.011446 4.222768 28.948856 179 176 161
-5.342095 10.095338 30.932035 89 90 76
-4.362514 1.804310 25.225201 35 32 17
-4.586186 3.618314 26.636587 179 173 161
-4.484200 0.954542 26.052135 142 134 121
-4.384181 1.994074 25.531849 165 159 147
-3.699082 -0.646117 21.600101 157 130 109
-3.637942 -0.031815 21.320841 175 144 115
-5.909751 12.889747 34.742413 125 129 112
-3.876070 0.498879 23.166277 157 160 139
-3.702830 -0.463878 22.131504 225 205 180
-3.974428 0.311053 24.678596 96 81 58
-3.629927 0.055615 22.585918 164 146 124
-3.359402 -0.558247 21.127182 150 124 99
-3.216023 -0.739660 20.567255 159 133 106
-3.397224 -0.553181 21.773619 215 196 179
-3.629466 -0.072744 24.387718 82 57 27
-3.849856 -0.990303 26.378992 156 126 98
-3.310509 -0.939311 22.948130 136 116 89
-3.203139 -0.095780 22.252897 108 79 47
-3.277264 0.502977 22.917990 94 83 63
-2.915385 -0.438943 20.581757 229 212 186
-4.146913 -0.267689 29.962002 189 156 123
-2.952304 -0.694730 21.444477 222 213 198
-3.563833 0.875517 25.880928 102 91 69
-3.593153 -0.182893 26.207930 84 53 24
-4.735711 10.220186 35.291027 225 201 167
-3.488301 2.488702 25.974255 217 200 174
-3.231361 -0.347340 24.085756 90 68 45
-4.847868 11.888062 36.203720 239 215 179
-4.929789 13.053919 36.838207 211 178 143
-3.576765 2.713386 26.766802 226 205 184
-4.538532 11.846218 34.094242 251 218 185
-3.964365 4.257699 29.783333 153 127 102
-3.129221 1.181399 23.508680 202 196 170
-4.497575 7.751419 33.894283 219 190 160
-4.303710 7.119060 32.458164 220 194 157
-2.945379 1.320324 22.423817 203 189 163
-3.282895 1.724253 25.096794 38 20 0
-3.282895 1.724253 25.096794 38 20 0
-3.887605 0.066905 29.837576 134 121 102
-4.332863 7.261111 33.298634 147 113 76
-4.554409 10.498659 35.912373 59 32 11
-4.050982 5.684829 32.001022 72 55 27
-3.748158 4.176376 29.710651 86 66 39
-3.135139 0.658840 24.897236 172 167 137
-3.609055 3.048046 28.780090 225 204 185
-4.309604 7.515729 34.474354 212 180 155
-4.529758 8.621399 36.358841 225 198 171
-3.405767 2.895468 27.697792 65 45 21
-2.551277 -0.216290 20.998848 190 174 151
-2.632671 -0.414410 21.780956 76 69 50
-4.380468 11.368484 36.712242 186 151 113
-2.838486 1.087964 23.878859 212 197 192
-2.450435 -0.366041 20.678320 202 199 182
-4.378800 10.350700 37.189133 43 14 0
-2.447934 -0.088115 20.743900 197 190 171
-4.405706 11.696670 37.483913 112 78 40
-4.644420 14.196604 39.530807 61 29 4
-4.395719 11.500744 37.416027 94 59 21
-3.427160 3.605368 29.243217 45 30 9
-3.315153 2.972642 28.385624 61 45 22
-3.440142 3.721547 29.802830 210 198 182
-4.173941 7.444178 36.294273 146 110 78
-2.944036 2.132035 25.531679 193 173 149
-3.051828 2.300984 26.816563 35 22 3
-2.955075 1.724384 26.188120 212 197 178
-2.672097 1.129714 23.762659 237 255 255
-1.992030 -0.759257 17.768270 244 241 232
-2.129186 -0.318156 19.000616 95 101 91
-4.199083 9.879253 37.777733 71 37 10
-4.405679 13.615130 39.610340 48 28 1
-3.741745 6.133344 33.649998 32 21 3
-4.004380 7.989040 36.064148 30 2 0
-3.389662 4.366897 30.559561 61 35 10
-1.947142 -0.804926 18.024612 203 201 186
-2.942009 2.399467 27.216785 224 216 197
-3.274386 3.767476 30.340189 81 64 38
-2.010902 -0.563954 18.772669 197 185 161
-3.075699 1.002911 29.255461 86 87 69
-3.075699 1.002911 29.255461 86 87 69
-2.154722 -0.147203 21.042753 81 81 69
-4.058248 11.447091 39.860767 58 31 12
-3.235463 4.604799 31.788475 38 17 0
-3.235463 4.604799 31.788475 38 17 0
-3.552849 6.699934 35.138271 45 15 0
-3.552849 6.699934 35.138271 45 15 0
-2.801610 2.385790 27.764925 20 13 0
-3.930668 9.621630 39.120522 35 22 3
-3.639562 7.467329 36.349926 36 25 7
-3.434508 5.561476 34.194927 205 170 142
-4.218476 14.112168 42.295620 225 204 175
-3.535431 6.585547 35.418880 44 21 3
-3.643997 7.653144 36.827259 213 198 177
-2.250587 -0.350110 22.723724 16 20 19
-3.500042 6.681172 35.544682 213 195 181
-4.090679 14.078176 42.243137 56 30 3
-3.859272 9.753431 39.984104 214 171 129
-2.171855 0.035816 22.560419 156 162 150
-2.171855 0.035816 22.560419 156 162 150
-3.983788 12.022857 41.585358 179 142 116
-2.550068 1.272589 26.801125 245 255 255
-3.636650 9.187967 39.678165 226 207 175
-3.725627 11.896313 40.821419 188 144 115
-3.475623 8.057293 38.215412 201 186 167
-3.124445 5.193560 34.511074 148 121 94
-3.577398 6.358673 39.649361 190 159 130
-3.533325 9.045506 39.310493 22 11 0
-2.962864 4.829499 33.061378 25 14 0
-2.526357 1.335641 28.430861 123 132 115
-1.820665 -0.005109 20.556040 30 32 21
-3.573121 9.408459 40.409683 230 203 173
-2.575784 1.180368 29.042179 131 149 125
-4.081889 11.976776 46.588398 137 97 62
-1.358096 -0.807981 15.507427 224 219 215
-3.728157 13.489330 42.691284 185 156 126
-2.965145 6.022019 34.240101 197 157 121
-1.348026 -0.444475 15.543152 229 221 202
-3.705524 11.845237 43.184559 21 1 0
-3.448356 9.335392 40.246330 37 22 0
-2.323354 0.621723 27.352253 198 186 164
-1.972787 0.519613 23.283991 205 189 166
-2.238762 1.086115 26.862209 218 202 169
-2.467812 1.376222 29.842035 8 1 0
-2.467812 1.376222 29.842035 8 1 0
-1.817517 0.320291 22.182104 215 196 164
-3.301134 8.894510 41.410419 218 202 176
-1.101937 -0.466735 13.868910 32 27 8
-2.562038 4.162288 32.769875 52 39 23
-2.951337 6.509670 37.970299 220 204 188
-1.456046 -1.308579 18.759209 171 163 142
-2.250802 1.938199 29.216526 6 0 0
-3.074655 6.722956 40.144699 199 168 139
-3.074655 6.722956 40.144699 199 168 139
-2.893005 7.414166 38.163681 217 204 187
-2.799778 6.126775 36.687412 184 148 114
-2.799778 6.126775 36.687412 184 148 114
-3.049416 6.868274 40.287586 46 28 6
-2.553935 4.351001 33.689648 228 216 202
-2.553935 4.351001 33.689648 228 216 202
-2.312209 1.419502 31.415497 23 16 0
-2.312209 1.419502 31.415497 23 16 0
-1.451482 -0.033451 19.835032 208 192 166
-2.773881 7.590252 38.248180 137 96 52
-1.636854 -1.682534 22.538948 231 242 225
-3.377422 14.500389 46.800186 147 123 99
-2.525449 1.514246 35.315117 212 191 164
-2.603121 4.885324 36.569084 215 182 151
-3.124067 10.802178 44.279503 138 93 51
-2.882336 9.578510 41.708477 162 116 66
-1.232792 -1.043046 17.748301 251 247 238
-2.130669 3.567819 30.649036 222 191 162
-2.130669 3.567819 30.649036 222 191 162
-2.265899 3.500876 33.190002 221 204 184
-2.698440 7.624266 39.750301 168 135 104
-1.867495 0.592319 27.635672 201 192 177
-1.065425 -0.913024 15.873910 18 15 6
-2.276932 1.440830 33.861099 217 197 173
-2.866869 10.452326 43.746227 47 21 6
-2.511725 7.180982 38.272694 43 9 0
-2.511725 7.180982 38.272694 43 9 0
-2.427120 -0.294998 37.750973 193 176 150
-2.723213 9.264779 42.491924 28 17 0
-2.001276 2.016877 31.096319 52 46 34
-1.839317 2.197352 29.481655 182 155 128
-2.055934 3.588762 33.396549 11 0 0
-1.739026 0.624886 28.196169 17 11 0
-1.739026 0.624886 28.196169 17 11 0
-2.276678 5.643516 37.353790 48 41 25
-1.764693 0.571846 29.295549 212 199 182
-2.783236 11.600923 47.005093 149 111 74
-2.332777 6.884891 39.615669 48 21 2
-2.315289 7.067444 40.956276 189 161 140
-2.239486 1.716849 39.552189 6 0 0
-2.239486 1.716849 39.552189 6 0 0
-1.667713 -0.057220 30.379528 208 196 182
-1.967201 3.521948 36.177082 194 170 136
-1.967201 3.521948 36.177082 194 170 136
-1.795590 2.886453 33.982895 22 10 0
-1.808667 2.849977 34.232044 14 0 0
-1.808667 2.849977 34.232044 14 0 0
-1.673795 -0.040937 31.857332 16 6 0
-1.665292 1.975919 31.910507 180 155 125
-2.341437 9.977881 45.057995 31 22 7
-1.882349 4.700701 36.703327 226 204 181
-1.804818 3.894291 35.419598 217 210 192
-2.185774 8.734783 43.686462 16 4 0
-2.304950 10.478135 46.693489 198 184 171
-2.155712 8.933901 44.155083 182 166 153
-1.964541 7.173565 40.625782 15 0 0
-1.704231 4.137624 36.442932 159 134 104
-1.704231 4.137624 36.442932 159 134 104
-1.741328 -2.659121 38.551910 227 222 203
-1.530297 4.254356 36.921627 157 132 102
-1.475277 0.574036 35.537792 181 165 150
-1.372164 0.626450 35.182438 17 2 0
-1.668678 -0.147236 42.749580 22 15 0
-1.515091 6.371351 41.171265 21 11 0
-1.670382 9.252728 45.659809 9 2 0
-1.524511 5.670873 42.203953 197 191 175
-1.418709 6.610072 42.541374 33 22 2
-1.418709 6.610072 42.541374 33 22 2
-1.156326 0.603883 34.972080 21 7 0
-1.156326 0.603883 34.972080 21 7 0
-1.268367 5.687018 42.158928 194 182 160
-1.039541 -0.334979 38.858589 207 201 177
-1.127036 1.623240 43.381500 182 165 137
-1.127036 1.623240 43.381500 182 165 137
-1.076807 2.171429 42.804546 186 159 132
-1.026725 0.966880 42.411037 3 1 0
-1.026725 0.966880 42.411037 3 1 0
-1.140935 8.636905 47.565605 53 41 27
-1.030407 5.719245 42.977707 42 29 23
-0.943639 3.367646 39.473671 26 23 18
-0.942892 3.255165 39.469276 12 3 0
-0.942892 3.255165 39.469276 12 3 0
-1.132838 1.876179 47.938892 23 15 2
-0.840412 3.593672 37.082748 188 160 123
-0.921117 5.376963 41.025681 230 213 197
-0.852738 3.453653 39.536777 190 184 170
-0.597882 -2.320430 28.688391 128 108 84
-0.788328 3.439013 40.209095 14 3 0
-0.916562 8.780426 47.957191 26 13 0
-0.625211 0.713030 33.646069 157 133 99
-0.694214 4.541410 42.452366 221 201 176
-0.575552 2.839664 40.508141 193 174 142
-0.526554 4.292605 40.081207 190 172 148
-0.242882 2.485139 40.788498 51 37 26
-0.242739 -3.477556 40.614273 136 132 105
-0.193659 0.706618 35.970173 171 143 119
-0.133577 0.530204 41.584942 46 35 17
-0.136829 6.272003 47.773895 147 112 82
-0.016893 2.539282 41.206203 17 0 0
0.189548 0.617158 43.261417 206 201 179
0.262518 0.811639 46.804684 129 114 85
0.315666 5.446325 47.916412 202 194 173
0.321560 0.481793 42.677208 27 16 0
0.321560 0.481793 42.677208 27 16 0
0.293406 0.530280 38.568714 202 197 177
0.481674 3.851644 45.226952 19 12 2
0.536776 0.119061 39.460686 182 158 120
0.644318 -2.188582 43.053558 160 136 108
0.644318 -2.188582 43.053558 160 136 108
0.721058 1.390016 46.711010 185 156 122
0.721058 1.390016 46.711010 185 156 122
0.705082 0.071585 44.932236 186 165 134
0.788730 0.381215 41.225586 35 28 9
0.991020 -4.209610 45.967602 25 13 0
1.087587 -2.950608 45.827892 147 149 128
1.135713 -2.446481 47.405685 151 134 104
1.166794 -4.464046 47.719749 3 1 0
1.061826 -0.795828 40.992966 188 172 149
1.116914 0.332190 41.635921 40 27 21
1.313380 2.336027 45.867790 152 136 121
1.279188 0.214604 43.236378 144 127 101
1.346269 -0.778601 43.523582 24 18 4
1.346269 -0.778601 43.523582 24 18 4
1.344603 0.326677 42.824711 48 29 15
1.588245 0.720531 46.837818 106 81 50
1.278044 -0.181531 37.475815 157 128 88
1.406318 -0.779085 41.051128 21 8 0
1.284894 1.479962 33.648647 151 120 89
1.618638 -1.358621 42.590191 133 105 81
1.590521 -1.206673 41.165073 180 154 127
1.668559 0.585162 42.207695 177 162 129
1.849265 -1.039045 46.010639 176 154 133
1.963717 -4.369023 46.688866 83 77 53
1.788156 0.489973 42.132362 172 164 127
1.708627 -0.092646 39.977131 119 88 59
2.219037 0.756693 47.871716 191 176 155
2.135535 0.035551 45.224194 104 80 54
2.044557 -0.904805 39.894886 32 14 0
2.044557 -0.904805 39.894886 32 14 0
2.734870 -0.006503 44.326832 154 129 99
