ply
format ascii 1.0
element vertex 1230
property float x
property float y
property float z
property uchar red
property uchar green
property uchar blue
end_header
-1.393304 0.537859 4.304556 164 182 197
-1.389497 0.851515 4.297264 34 57 85
-1.392115 0.522606 4.314471 141 161 177
-1.392974 0.509302 4.317834 60 84 109
-1.390215 1.475149 4.313622 91 104 151
-1.386986 1.495991 4.306571 161 177 209
-1.384041 1.462352 4.314096 207 221 251
-1.384041 1.462352 4.314096 207 221 251
-1.382068 1.315780 4.310035 74 95 142
-1.379805 1.570062 4.307433 142 161 190
-1.385166 0.182736 4.326644 10 26 52
-1.380724 1.518012 4.315197 74 100 148
-1.378409 1.555850 4.313607 17 35 55
-1.380013 0.693811 4.318988 49 65 113
-1.376769 1.346798 4.311615 188 205 240
-1.376321 0.602996 4.322537 84 102 148
-1.385742 -1.804285 4.366404 50 68 96
-1.368689 1.328927 4.318350 202 219 251
-1.364303 -1.247797 4.314968 34 47 84
-1.362958 0.744943 4.311298 70 84 137
-1.364884 1.541531 4.319352 166 189 216
-1.365545 0.817213 4.322356 89 110 159
-1.361189 0.627251 4.319507 141 160 206
-1.361189 0.627251 4.319507 141 160 206
-1.360131 0.698635 4.319692 159 180 226
-1.363810 0.174937 4.335812 182 205 236
-1.357369 1.182539 4.317303 93 113 142
-1.377564 -1.811613 4.385171 87 106 133
-1.356006 1.348494 4.322889 198 216 249
-1.353281 0.756081 4.321641 182 202 246
-1.356125 0.507436 4.332426 180 207 232
-1.351761 1.193155 4.320481 203 227 238
-1.358683 0.195442 4.343311 71 93 114
-1.343055 2.002081 4.298457 73 92 142
-1.341327 1.695626 4.299719 55 75 134
-1.344742 1.241046 4.311276 186 204 248
-1.346609 1.365773 4.317143 172 194 225
-1.346609 1.365773 4.317143 172 194 225
-1.348093 0.577879 4.328197 183 201 234
-1.346179 0.665110 4.323059 78 98 145
-1.345659 1.157203 4.327136 93 118 162
-1.339535 1.226627 4.316604 187 206 236
-1.339745 1.461909 4.319085 151 175 209
-1.334147 -1.778855 4.307526 84 103 128
-1.338158 0.621942 4.324355 142 162 208
-1.336567 0.777710 4.319505 83 106 152
-1.353894 -1.784774 4.375575 54 71 103
-1.346074 0.188838 4.355556 212 231 241
-1.333653 1.236588 4.317540 128 147 183
-1.335565 0.669212 4.324093 102 119 168
-1.337317 0.570255 4.330962 117 138 169
-1.333168 0.824011 4.323800 142 165 212
-1.336000 0.844352 4.335039 209 229 243
-1.332243 0.685869 4.325387 92 110 156
-1.336310 0.167426 4.343040 194 214 240
-1.329415 0.708711 4.328055 178 198 241
-1.323634 1.844868 4.311052 52 73 124
-1.326815 1.584155 4.322427 171 191 217
-1.327635 0.873782 4.328348 214 230 248
-1.326041 1.027428 4.325454 107 131 183
-1.321354 1.805126 4.314665 55 75 126
-1.323625 1.245464 4.323503 158 177 220
-1.317715 2.001230 4.309171 109 129 158
-1.323493 0.624787 4.328326 108 127 163
-1.322238 0.721537 4.326675 108 126 165
-1.320792 0.696647 4.322554 125 142 178
-1.320570 0.918729 4.327689 123 151 190
-1.318821 1.501109 4.324366 87 109 141
-1.315359 1.822732 4.313102 97 115 157
-1.318970 1.430998 4.327717 74 97 139
-1.309541 2.107922 4.299561 200 220 234
-1.334108 -1.343298 4.381210 39 59 109
-1.321371 1.192723 4.340515 200 217 219
-1.316032 0.987786 4.325045 125 147 188
-1.316494 0.842014 4.328264 183 200 206
-1.317444 0.546721 4.334620 214 232 243
-1.313983 0.936660 4.323570 112 139 175
-1.311303 1.442331 4.324080 204 224 251
-1.311234 1.237387 4.326608 92 109 141
-1.313962 0.661765 4.336581 201 218 238
-1.308612 1.591624 4.325805 204 222 242
-1.308984 1.015874 4.330376 185 208 230
-1.311669 0.290707 4.339861 200 220 239
-1.305962 1.305511 4.327560 187 210 227
-1.327925 -1.569111 4.409378 4 11 36
-1.319085 -1.498439 4.401743 103 123 148
-1.312904 -1.353937 4.384731 142 163 184
-1.308408 -1.597013 4.413990 69 76 102
-1.257367 -1.838240 4.426488 15 25 46
-1.237722 -1.569223 4.440344 88 99 115
-1.214021 -1.423360 4.441892 192 211 224
-1.204580 -1.814679 4.409024 8 20 50
-1.165631 1.432425 4.394675 62 75 77
-1.173440 -1.565719 4.435798 1 9 23
-1.175721 -1.071285 4.447864 11 23 22
-1.176312 -1.092231 4.451495 25 25 27
-1.168929 -1.578412 4.429756 10 13 27
-1.159994 -2.106769 4.448483 77 89 123
-1.153068 -1.556171 4.451354 92 105 121
-1.146795 -1.837176 4.452407 87 105 141
-1.142892 -1.979423 4.446904 76 90 123
-1.137253 1.327898 4.426397 107 123 125
-1.142654 -2.054066 4.448720 86 96 131
-1.142853 -1.808611 4.451529 12 24 40
-1.138493 1.271038 4.435795 109 132 136
-1.100430 1.622028 4.420698 67 86 83
-1.102497 -1.841716 4.470125 34 44 60
-1.102497 -1.841716 4.470125 34 44 60
-1.089441 2.081391 4.434709 111 120 130
-1.079778 1.296680 4.438980 111 133 137
-1.080248 -1.693707 4.469685 12 31 60
-1.079765 -1.542889 4.472419 95 112 131
-1.068654 2.023105 4.436394 49 65 74
-1.054377 1.569907 4.443489 14 29 33
-1.061864 -1.600320 4.484197 43 54 71
-1.047440 2.188544 4.432846 192 200 205
-1.058438 -1.539766 4.479957 109 130 148
-1.046007 1.611422 4.442198 105 121 120
-1.044990 2.097615 4.442838 176 189 204
-1.056662 -1.006814 4.497430 40 55 60
-1.038817 2.119881 4.428383 54 56 59
-1.042994 -2.195104 4.460293 89 96 115
-1.043488 -1.748487 4.469883 89 116 151
-1.043488 -1.748487 4.469883 89 116 151
-1.029451 1.402655 4.456120 55 74 77
-1.028418 1.333140 4.452435 36 52 55
-1.036317 -2.094106 4.494762 67 81 121
-1.013411 -1.802451 4.466280 72 85 119
-1.005847 -2.202083 4.476944 98 103 118
-1.005827 -1.537689 4.477550 77 94 114
-0.996302 -1.806935 4.498882 6 20 47
-0.994094 -1.788146 4.496451 96 119 156
-0.993335 -1.598499 4.504937 96 115 139
-0.979974 -2.178379 4.495217 128 138 157
-0.976564 -1.526493 4.503098 26 38 53
-0.977406 -1.576107 4.513220 5 10 24
-0.974011 -2.193128 4.508379 97 102 119
-0.962466 -1.515020 4.494092 107 125 142
-0.959814 -2.180243 4.503348 111 117 144
-0.959749 -1.591542 4.510370 83 100 119
-0.955912 -1.709357 4.505955 28 56 90
-0.950768 -2.189189 4.505272 63 71 92
-0.940265 -1.621855 4.507463 29 48 75
-0.934367 -2.181318 4.516149 62 68 97
-0.921554 -2.177883 4.506848 50 55 83
-0.916205 -1.784264 4.499960 14 31 63
-0.914950 -1.567257 4.514804 125 142 158
-0.870320 -1.512574 4.533152 3 14 31
-0.870237 -2.175056 4.534081 54 61 91
-0.853176 1.571094 4.482153 24 39 40
-0.862308 -1.548108 4.543486 21 29 48
-0.856909 -1.565351 4.548902 85 103 123
-0.851238 -1.763060 4.528155 93 122 161
-0.848780 -2.098238 4.553718 14 18 20
-0.848780 -2.098238 4.553718 14 18 20
-0.836050 1.463574 4.498503 111 134 140
-0.838367 -2.102188 4.526464 21 25 41
-0.829966 -1.524232 4.534158 92 112 130
-0.829966 -1.524232 4.534158 92 112 130
-0.817159 1.348672 4.498414 115 139 145
-0.817254 -2.177750 4.546557 66 71 94
-0.802712 1.572904 4.501153 16 28 36
-0.802569 1.411835 4.513019 35 45 42
-0.802885 1.512712 4.517842 110 135 141
-0.796804 1.658556 4.499864 7 25 32
-0.791698 1.309891 4.488347 44 61 66
-0.796544 -1.497704 4.543258 124 144 161
-0.766227 -1.504995 4.533701 94 115 131
-0.763020 1.347895 4.530309 117 142 149
-0.763020 1.347895 4.530309 117 142 149
-0.756053 -2.175622 4.566430 115 123 135
-0.742430 1.556264 4.529343 80 96 104
-0.744490 -1.530394 4.552456 25 28 49
-0.744133 -2.167960 4.569565 201 209 218
-0.730599 -1.545023 4.565826 64 78 103
-0.723341 -2.175263 4.567103 194 197 204
-0.717460 -1.489181 4.558852 22 41 57
-0.710031 -1.534237 4.566183 0 8 27
-0.707982 -2.132485 4.581264 205 210 231
-0.687599 1.336639 4.536202 123 145 152
-0.678642 1.295159 4.549676 13 29 33
-0.679026 -2.205420 4.587446 6 6 10
-0.679026 -2.205420 4.587446 6 6 10
-0.671976 1.383154 4.545042 11 20 27
-0.672415 -2.180181 4.588747 199 205 216
-0.663685 1.234453 4.546393 123 146 154
-0.653921 1.247848 4.552877 116 140 148
-0.644370 -1.672879 4.603969 31 54 91
-0.619420 -1.549981 4.611015 57 80 116
-0.602841 1.387587 4.564320 121 139 147
-0.606916 -2.173595 4.615709 194 201 218
-0.602680 -2.126188 4.592795 58 68 114
-0.592919 -1.515134 4.602612 12 15 27
-0.581108 1.324689 4.555291 122 145 152
-0.576930 -1.683867 4.596825 20 45 81
-0.557485 1.366840 4.577623 71 91 99
-0.557833 1.294715 4.581458 57 76 84
-0.556864 -1.529778 4.617225 102 115 142
-0.507331 -2.119645 4.632015 104 119 156
-0.489123 -1.770454 4.626543 80 95 132
-0.480495 -1.529105 4.646953 16 24 36
-0.471979 -1.488777 4.638273 6 9 22
-0.452360 -2.108431 4.647047 80 84 118
-0.448304 -1.457985 4.648232 65 81 97
-0.448304 -1.457985 4.648232 65 81 97
-0.432874 -1.808574 4.642764 47 60 90
-0.424178 -1.505378 4.656924 0 3 13
-0.408465 -1.477209 4.655562 8 14 25
-0.400645 -1.515370 4.661114 123 141 163
-0.397943 -1.702454 4.645425 95 120 161
-0.397287 1.282842 4.642920 81 100 109
-0.397287 1.282842 4.642920 81 100 109
-0.393846 -1.694511 4.657861 74 107 148
-0.393157 -2.123893 4.681561 124 134 175
-0.382312 -1.528965 4.661515 84 105 137
-0.377483 -1.537369 4.655571 71 94 127
-0.371771 -1.527469 4.667452 10 24 45
-0.367512 -1.567035 4.668599 72 103 140
-0.348951 -1.553424 4.671738 19 30 48
-0.339677 -1.494449 4.674597 31 37 54
-0.337796 -1.644400 4.651314 95 129 165
-0.327552 0.108901 4.628857 149 159 161
-0.329916 -2.113005 4.679033 127 137 174
-0.310928 0.117829 4.638750 6 5 5
-0.310928 0.117829 4.638750 6 5 5
-0.313056 -2.119885 4.694221 76 89 133
-0.309275 -1.612671 4.679376 17 26 31
-0.307836 -2.087285 4.677433 189 197 208
-0.304200 -1.814527 4.680697 41 56 82
-0.302619 -1.734285 4.679345 88 103 138
-0.302478 -2.139701 4.694762 95 110 156
-0.302478 -2.139701 4.694762 95 110 156
-0.298280 0.143508 4.636588 136 163 171
-0.298280 0.143508 4.636588 136 163 171
-0.300175 -1.654437 4.675807 113 143 177
-0.297083 0.090925 4.642197 138 152 159
-0.297083 0.090925 4.642197 138 152 159
-0.299295 -2.084109 4.703887 79 84 120
-0.294989 -2.042854 4.690419 158 170 195
-0.287393 0.100567 4.647194 11 13 13
-0.287393 0.100567 4.647194 11 13 13
-0.287320 -2.061666 4.704241 89 99 133
-0.285749 -2.092553 4.699343 184 190 221
-0.283857 -1.775487 4.681789 105 121 150
-0.283520 -1.755439 4.683972 61 78 112
-0.281769 -1.794577 4.688491 51 66 96
-0.087680 -0.611947 1.460225 89 97 118
-0.281415 -2.073021 4.705842 71 80 120
-0.274857 0.175504 4.650796 5 4 7
-0.274857 0.175504 4.650796 5 4 7
-0.275298 -1.688886 4.675339 145 166 194
-0.271388 -1.925495 4.691316 83 90 110
-0.269951 -1.660976 4.688371 19 26 26
-0.260853 -1.495903 4.702042 126 140 157
-0.258090 -1.941166 4.696095 11 15 18
-0.254992 0.092911 4.661293 155 173 180
-0.254992 0.092911 4.661293 155 173 180
-0.253023 -1.710862 4.704720 16 19 23
-0.245787 0.115980 4.663138 9 15 14
-0.245787 0.115980 4.663138 9 15 14
-0.243174 -1.493125 4.704728 39 52 71
-0.241312 -1.724353 4.687162 17 22 23
-0.236480 -1.464676 4.712714 107 116 129
-0.233271 -1.965547 4.686390 23 28 28
-0.230488 0.154939 4.665732 136 161 173
-0.232981 -2.110660 4.716774 74 84 130
-0.232018 -1.881801 4.704043 60 72 98
-0.224300 -1.472432 4.709229 0 6 18
-0.220895 -2.030379 4.712948 188 199 230
-0.215738 0.079065 4.681038 134 161 171
-0.216320 -2.086721 4.721911 205 208 222
-0.211129 -1.951533 4.708220 16 22 34
-0.208903 -1.461539 4.711971 14 22 36
-0.205566 -2.031469 4.706854 73 84 119
-0.196860 -2.099643 4.719467 49 61 104
-0.196855 -2.100244 4.719151 48 61 107
-0.182916 0.177724 4.680708 6 5 0
-0.176465 0.034628 4.691860 2 6 7
-0.176465 0.034628 4.691860 2 6 7
-0.168744 -2.013975 4.721183 177 189 211
-0.169042 -2.098992 4.744801 57 69 114
-0.162615 0.158052 4.696839 140 155 163
-0.153411 0.054177 4.702763 122 150 162
-0.136200 -1.951034 4.738866 162 177 191
-0.133699 0.140888 4.696356 127 159 168
-0.131431 -2.073967 4.743095 172 179 197
-0.128870 -1.683499 4.723110 76 90 133
-0.116156 -1.667266 4.737364 15 28 68
-0.099227 -1.446359 4.755748 13 19 34
-0.096887 -2.044154 4.752678 80 90 131
-0.085929 -2.024802 4.747191 121 131 171
-0.082792 0.135080 4.725160 10 8 6
-0.082792 0.135080 4.725160 10 8 6
-0.065356 -2.061404 4.755214 198 203 215
-0.065324 -1.949059 4.763774 115 124 147
-0.059446 -1.474718 4.761859 73 86 111
-0.057300 -1.611025 4.752791 84 108 154
-0.053912 0.115428 4.739530 132 145 144
-0.049587 0.126238 4.742939 47 53 53
-0.047583 -2.023461 4.755799 76 87 136
-0.045842 -1.604357 4.766673 75 96 145
-0.044623 -2.077463 4.753859 52 60 97
-0.038565 -1.938642 4.768693 86 98 135
-0.037587 0.190162 4.743486 3 7 9
-0.037587 0.190162 4.743486 3 7 9
-0.034276 -1.448454 4.778251 13 18 34
-0.033207 0.145683 4.738936 9 8 6
-0.031273 0.104635 4.752666 6 7 8
-0.028044 -2.005689 4.762313 180 189 224
-0.016310 -1.613112 4.755194 37 54 99
-0.015507 0.120989 4.758797 160 174 181
-0.015507 0.120989 4.758797 160 174 181
-0.015080 0.151149 4.755790 2 5 9
-0.015080 0.151149 4.755790 2 5 9
-0.014431 -1.958994 4.776885 16 21 28
-0.008216 -2.088775 4.776224 145 154 198
0.004833 -1.933622 4.769045 212 217 237
0.008414 -1.950486 4.770667 10 12 16
0.016362 -1.633453 4.765423 18 35 81
0.026583 -1.641335 4.756924 84 102 147
0.041341 -2.074448 4.816863 128 131 152
0.041791 -2.077100 4.786866 207 216 242
0.048177 -2.029162 4.773913 194 193 206
0.048177 -2.029162 4.773913 194 193 206
0.049914 -1.987742 4.785064 90 99 132
0.051840 -2.043382 4.783307 209 209 222
0.060741 -1.410677 4.806210 3 9 27
0.068247 -1.923301 4.790977 175 182 211
0.075431 -1.958160 4.781835 122 132 162
0.080045 -1.414985 4.779561 15 22 38
0.091132 -1.988530 4.783707 79 94 133
0.105091 -2.223968 4.790168 215 221 233
0.106384 -2.029206 4.801980 199 206 220
0.110348 -1.455514 4.821968 64 78 110
0.109366 -1.438094 4.734668 39 54 92
0.113341 -1.492443 4.819979 13 24 39
0.114841 -1.464329 4.824164 40 57 93
0.115584 -2.214413 4.803937 77 88 116
0.117303 -1.901234 4.792576 82 97 131
0.132465 -1.729489 4.802288 125 141 178
0.133160 -1.963275 4.811186 14 16 18
0.142678 -1.415616 4.816719 14 21 37
0.147293 -1.916877 4.817793 183 194 210
0.151842 -1.889513 4.812918 146 162 196
0.161675 -1.977623 4.813441 93 101 120
0.164979 -1.467750 4.813978 13 25 45
0.167656 -1.424987 4.820378 21 27 44
0.167656 -1.424987 4.820378 21 27 44
0.243302 -1.442524 4.875845 2 6 24
0.267434 -1.991098 4.851393 78 89 122
0.271398 -2.153119 4.831992 61 77 124
0.275953 -1.443265 4.864655 103 117 137
0.286904 -1.454397 4.859191 7 18 44
0.301889 -1.440910 4.870978 89 103 124
0.305448 -1.987615 4.871822 67 80 115
0.306472 -1.385318 4.873352 3 11 20
0.313805 -1.990519 4.856607 193 199 225
0.313805 -1.990519 4.856607 193 199 225
0.343736 -1.365377 4.884247 83 93 106
0.383040 -1.491831 4.868862 89 112 141
0.401906 -1.489489 4.883581 19 31 50
0.397502 -0.805240 2.122613 21 28 43
-1.467912 -0.425101 6.691902 18 27 48
-2.520205 0.746495 9.641184 127 141 157
-0.308583 -1.095212 3.680912 134 142 150
0.478657 -0.717489 2.666423 24 36 47
-2.631757 2.914133 11.721251 95 114 120
0.543886 -0.930493 4.702168 71 77 99
-2.300282 -12.017512 35.677814 62 72 108
-0.307468 0.180011 4.817036 107 125 130
-0.293432 0.146918 4.718009 115 131 133
-0.293432 0.146918 4.718009 115 131 133
-0.280951 0.256845 5.183858 109 131 138
-0.550361 -7.453994 19.818024 192 203 210
-0.271434 0.251142 5.034592 120 139 146
-0.203004 -1.626364 5.901326 22 34 45
-0.167932 0.162652 4.691730 119 130 136
-0.152927 0.055540 4.709472 87 116 129
-0.116127 -1.460032 4.724156 79 93 107
-0.116127 -1.460032 4.724156 79 93 107
-0.105158 0.140613 4.721611 105 125 131
0.326978 -0.913647 2.799636 134 148 155
-0.039315 0.057854 4.754184 13 9 7
-0.013923 0.132590 4.749391 2 6 11
-0.013923 0.132590 4.749391 2 6 11
0.696416 -0.774749 2.125240 68 81 113
1.501804 -3.394916 10.709500 30 38 44
1.514375 -3.266416 10.397017 85 98 130
1.430921 -3.246583 10.004160 209 222 237
0.701896 -2.513781 6.741663 194 205 216
0.463306 -1.447257 4.641957 81 108 143
0.731734 -2.010643 7.094532 81 91 113
0.491816 -1.461022 4.625385 128 144 163
0.758684 -0.777483 2.683831 153 163 170
0.569779 -1.180374 4.539434 4 9 14
0.569779 -1.180374 4.539434 4 9 14
0.911923 -0.845025 2.915949 107 119 150
1.147354 -2.278811 6.692347 188 203 213
1.550644 -2.258039 9.992120 4 10 22
0.608140 -1.394257 4.562031 85 102 140
0.613106 -1.163861 4.515351 0 1 5
0.646729 -1.147988 4.486532 0 4 9
0.648608 -1.154787 4.483500 54 56 64
0.699171 -1.580819 4.504913 97 107 139
0.758496 -1.538439 4.390341 105 115 133
1.276277 -1.772932 5.875538 74 83 111
1.423117 -1.783303 5.681577 34 43 54
0.827628 -1.519549 4.299781 118 125 158
0.831032 -1.508823 4.291470 69 75 97
0.842842 -1.498987 4.271861 191 198 212
0.842842 -1.498987 4.271861 191 198 212
0.888396 -1.466311 4.215052 98 102 121
0.888396 -1.466311 4.215052 98 102 121
0.956880 -1.413475 4.114190 76 86 122
0.980119 -1.389177 4.072120 70 80 115
0.977119 -1.474085 4.036865 57 74 101
1.006948 -1.169576 4.133486 15 19 20
0.999838 -1.347557 4.043534 134 149 175
1.008978 -1.348365 4.024422 76 90 120
1.018467 -1.349654 4.001819 179 186 208
1.018467 -1.349654 4.001819 179 186 208
1.021788 -1.334171 4.009155 60 77 118
1.103436 -0.217075 4.539887 120 135 131
1.109112 -0.149702 4.571953 3 13 12
1.080927 -0.498363 4.368106 128 141 142
1.069625 -0.340121 4.194892 124 136 134
1.096551 -0.339164 4.468011 107 121 122
1.092753 -0.375770 4.442446 122 135 136
1.082621 -0.517468 4.355190 122 130 130
1.150174 0.350592 4.794961 0 2 4
1.145519 0.248858 4.763959 93 107 106
1.108816 -0.247658 4.515710 107 122 120
1.169431 0.598185 4.872543 2 7 3
1.195329 1.156416 4.971604 78 89 88
1.152265 0.314404 4.780713 134 140 143
1.150503 0.277809 4.767127 121 132 133
1.150503 0.277809 4.767127 121 132 133
1.120644 -0.131865 4.581214 133 147 147
1.100523 -0.371322 4.442229 19 28 28
1.182977 0.775117 4.912041 127 138 133
1.136714 0.052437 4.666807 142 156 152
1.162379 0.358283 4.796273 133 144 140
1.162721 0.359502 4.798568 133 144 140
1.081935 -0.647443 4.267069 91 104 104
1.158504 0.284643 4.768037 3 11 17
1.158504 0.284643 4.768037 3 11 17
1.107164 -0.364635 4.440463 112 127 129
1.095306 -0.505146 4.355179 99 110 113
1.189965 0.801560 4.912443 127 138 136
1.114651 -0.296320 4.481098 116 132 129
1.104036 -0.438334 4.401006 108 125 120
1.133725 -0.068333 4.597760 116 131 126
1.075898 -0.746541 4.198596 88 100 100
1.142097 0.004142 4.643659 117 133 130
1.157832 0.208346 4.737405 121 132 136
1.131327 -0.124793 4.575482 31 44 48
1.046460 -1.305673 3.962672 73 80 103
1.046460 -1.305673 3.962672 73 80 103
1.183804 0.559335 4.860753 119 132 127
1.184963 0.595020 4.866358 122 132 128
1.227617 1.604231 4.993226 129 135 132
1.163855 0.253675 4.756048 131 146 153
1.040838 -1.413262 3.916223 192 203 214
1.103615 -0.495330 4.360594 41 53 54
1.123967 -0.257410 4.498590 30 42 46
1.115351 -0.356739 4.442171 40 54 63
1.101381 -0.527721 4.337745 95 104 106
1.176629 0.410709 4.806325 114 126 126
1.148773 0.033634 4.651138 116 131 131
1.216005 1.136611 4.967818 118 130 125
1.169606 0.289667 4.771157 97 105 121
1.203734 0.856466 4.929865 44 56 56
1.203734 0.856466 4.929865 44 56 56
1.086164 -0.688249 4.226057 23 34 41
1.234676 1.673779 4.978643 115 124 113
1.123407 -0.309180 4.473030 101 115 116
1.160229 0.129481 4.701975 117 131 129
1.227516 1.411112 4.985721 114 125 118
1.186518 0.499803 4.838893 37 48 59
1.159851 0.107074 4.691213 14 25 27
1.195672 0.625640 4.876132 120 134 128
1.191702 0.576845 4.861804 4 12 9
1.122282 -0.328065 4.455990 20 34 40
1.142377 -0.114184 4.577204 33 45 48
1.220766 1.109121 4.966424 31 42 43
1.220965 1.108891 4.965730 31 41 44
1.053375 -1.310855 3.943450 86 94 125
1.239171 1.577586 4.987011 35 42 48
1.154043 -0.015372 4.629814 44 58 64
1.241064 1.632698 4.986300 8 14 13
1.241064 1.632698 4.986300 8 14 13
1.224031 1.090801 4.965422 86 96 104
1.187430 0.407981 4.810625 42 54 62
2.938103 -0.418128 14.656352 93 105 114
1.197914 0.538828 4.850911 40 49 61
1.248775 1.652229 4.985192 116 123 118
1.237640 1.142741 4.972620 49 60 63
1.223884 0.838155 4.926325 28 33 32
1.119076 -0.518207 4.328829 25 29 32
1.248229 1.373159 4.986624 26 32 30
1.340693 -1.249001 5.309724 116 129 132
1.217050 0.616500 4.872601 116 133 136
1.143521 -0.314263 4.460312 83 93 101
1.090033 -0.846676 4.107217 2 7 9
1.159485 -0.169250 4.548398 111 123 121
1.057645 -1.385663 3.871204 64 79 108
1.219190 0.580757 4.846061 36 46 54
1.065537 -1.383040 3.850996 199 209 225
1.138858 -0.643824 4.232129 26 35 48
1.086297 -1.266034 3.875616 141 145 151
1.109331 -1.080334 3.976482 103 122 154
1.129141 -0.828296 4.080685 24 31 38
1.177009 -0.534512 4.291113 25 31 35
1.099402 -0.701525 3.653546 17 24 29
1.321130 0.866329 4.939749 38 46 48
1.116577 -1.201867 3.835545 21 32 52
1.117293 -1.229994 3.811356 175 183 188
1.252033 -0.109253 4.559083 84 100 118
1.323038 0.604244 4.872256 28 44 49
1.349043 0.905999 4.951115 102 120 134
1.349043 0.905999 4.951115 102 120 134
1.113245 -1.315651 3.745143 89 104 133
1.183138 -0.725639 4.131486 76 91 108
1.382634 1.344430 5.002111 138 158 177
1.383555 1.330071 5.005915 87 107 127
1.341070 0.610847 4.871581 41 62 66
1.240814 -0.392767 4.365316 97 123 149
1.303358 0.118611 4.677530 110 128 154
1.395968 1.342314 5.006553 76 96 111
1.403877 1.443120 5.015105 18 22 18
1.396157 -1.287732 4.098324 27 41 56
1.376750 0.746242 4.918435 120 146 179
0.723867 1.238230 4.468215 28 39 47
1.211999 -0.741373 4.089600 53 67 89
1.400907 -1.273553 4.074452 109 124 157
1.394682 0.649563 4.887353 132 155 182
1.394486 0.646970 4.881176 131 153 181
1.412035 0.885623 4.949380 104 116 115
1.157038 -1.184176 3.722216 81 88 110
1.452752 1.401045 5.013343 149 169 185
1.400466 0.593288 4.866784 124 138 166
1.455992 1.412110 5.027800 151 171 187
1.304716 -0.254798 4.444609 17 29 65
1.447103 1.235602 4.998341 145 172 190
1.225420 -0.787715 4.037814 57 77 107
1.389312 0.415890 4.806647 87 106 138
1.321123 -0.141966 4.509334 101 116 126
1.232914 -0.748555 4.066474 55 73 105
1.429756 0.890088 4.953705 101 110 116
1.453695 1.230451 5.009184 143 167 190
1.305445 -0.286247 4.419514 36 47 85
1.302249 -0.311908 4.402122 36 47 82
1.167339 -1.165205 3.705982 69 81 119
1.425333 0.697161 4.901308 86 104 141
1.429618 0.731818 4.914265 83 100 142
1.428785 0.712558 4.903878 84 101 141
1.424313 0.659513 4.888238 59 76 112
1.242948 -0.725652 4.069774 23 31 38
1.326919 -0.190156 4.474903 109 126 160
1.457141 1.052143 4.988350 155 178 206
1.459556 1.071821 4.989840 159 184 210
1.167392 -1.183895 3.679436 121 122 134
1.446683 0.888715 4.953266 90 98 108
1.303262 -0.366539 4.347330 7 17 34
1.235650 -0.790334 4.008863 114 133 171
1.390335 0.257403 4.733313 145 161 198
1.489538 1.558798 5.029857 71 86 118
1.279887 -0.537267 4.222030 135 152 175
1.309223 -0.342313 4.366802 139 152 173
1.172754 -1.164662 3.688969 189 196 210
1.278170 -0.551058 4.207103 16 35 50
1.433046 0.653919 4.882634 126 140 179
1.337065 -0.164276 4.487068 30 38 74
1.493860 1.518147 5.026906 57 68 94
1.227161 -0.864509 3.938866 113 126 141
1.481653 1.230014 5.013540 149 175 201
1.431301 0.552518 4.846422 139 161 194
1.501212 1.589114 5.030970 81 96 130
1.176661 -1.164460 3.668152 148 155 158
1.179567 -1.156687 3.670009 166 175 194
1.252080 -0.787466 4.005260 81 99 143
1.318286 -0.379755 4.320478 48 59 99
1.208608 -1.004811 3.783940 26 36 54
4.378067 0.337016 16.362486 157 169 198
1.522934 1.534626 5.045267 141 161 191
1.300138 -0.544373 4.182103 73 94 116
1.387130 0.003895 4.577220 197 220 245
1.334922 -0.375018 4.314409 105 119 159
1.370363 -0.154444 4.472402 123 136 172
1.195961 -1.118533 3.646244 20 26 43
1.197234 -1.124054 3.639555 23 33 62
1.409879 0.069733 4.609526 161 174 205
1.192015 -1.193593 3.579857 70 86 131
1.185699 -1.215859 3.556432 73 94 129
1.527486 1.018929 4.997521 150 172 201
1.463182 0.336896 4.746775 17 28 38
1.267921 -0.830576 3.876825 103 121 158
1.205758 -1.129879 3.591545 112 121 142
1.376681 -0.322481 4.313692 125 140 172
1.384255 -0.337968 4.291417 148 162 184
1.361444 -0.476828 4.164017 74 88 128
1.296354 -0.799810 3.844064 156 169 199
2.401301 0.149512 7.334213 146 157 185
1.439996 -0.145529 4.409222 17 25 33
1.563391 0.569349 4.828577 12 19 40
1.371006 -0.538679 4.070325 119 134 172
1.221278 -1.168259 3.429332 207 218 228
3.095082 3.984265 10.990558 154 163 187
1.238524 -1.088274 3.496709 190 197 208
1.339752 -0.679010 3.927734 127 136 159
1.647885 1.223915 5.052635 140 157 191
1.237835 -1.104206 3.472943 77 82 117
1.416864 -0.374973 4.205890 103 120 159
1.416864 -0.374973 4.205890 103 120 159
1.474172 -0.120985 4.412868 151 162 178
1.385281 -0.535269 4.049985 122 134 176
1.510436 0.055845 4.539432 165 175 196
1.465954 -0.380658 3.922813 171 177 190
1.561754 0.321144 4.701933 17 20 37
1.353911 -0.682527 3.879658 15 21 23
1.632003 0.194125 4.419744 42 51 63
1.436288 -0.354419 4.202579 23 29 47
1.426756 -0.404565 4.156477 16 23 50
1.426756 -0.404565 4.156477 16 23 50
0.898589 0.970474 3.920175 6 9 16
1.668368 1.028082 5.005104 26 28 42
1.582273 0.354822 4.722204 23 32 55
2.465576 1.306635 7.560707 18 26 44
1.579305 0.335173 4.711153 18 24 39
1.256042 -1.064273 3.439666 202 204 215
1.865528 1.877779 6.324843 166 183 205
1.583606 0.324086 4.701591 157 166 181
1.415218 -0.489725 4.062274 136 150 180
1.615786 0.524148 4.807147 134 141 179
1.499024 -0.132678 4.380185 182 195 205
1.415529 -0.503763 4.046697 127 143 170
1.695214 1.099205 5.031120 137 150 181
48.086239 38.442276 170.014267 169 179 193
1.614566 0.451867 4.762640 70 79 122
1.745401 1.552714 5.132524 147 165 202
1.752607 1.667184 5.143787 118 134 162
1.744650 1.517075 5.126429 134 151 193
1.602183 0.327632 4.698753 141 150 175
1.248716 -1.121927 3.334290 202 212 214
1.626035 0.460365 4.768683 137 145 188
1.694075 0.869257 4.957723 106 118 139
1.267773 -1.054098 3.380749 141 149 177
1.256667 -1.102970 3.324284 114 131 165
1.255813 -1.107642 3.313943 43 58 84
0.478168 0.098919 2.635258 47 73 96
-0.271071 2.706440 6.126779 130 146 183
0.364703 -0.791143 2.363980 94 105 123
-17.938894 12.758627 43.581409 88 102 105
-0.261577 -2.551362 6.794176 46 56 88
0.610234 -0.701585 2.415370 83 93 110
-0.316167 0.077574 4.641673 7 7 9
-0.282406 -2.668363 7.588155 29 38 61
-0.306427 0.082737 4.638583 0 0 3
-0.287616 0.041767 4.672380 7 6 6
-0.257297 0.138006 4.658194 113 127 132
-0.127844 0.185983 4.710834 10 7 7
-0.086473 0.032898 4.635155 107 126 131
-0.063332 0.170527 4.744328 81 109 119
-0.053344 0.116312 4.739344 88 108 111
0.167615 -1.305621 4.542037 68 75 86
0.144286 0.504189 4.727321 6 25 37
0.133267 0.515379 4.769935 47 73 88
-0.088569 0.447160 5.121171 94 114 125
0.978074 -0.734939 1.869465 173 181 200
-1.585193 1.338058 4.273087 94 119 160
-1.579111 0.150670 4.273507 63 97 139
-1.576233 1.204646 4.270057 1 5 14
-1.568530 -0.175860 4.276205 98 130 157
-1.567157 1.254910 4.281737 130 155 182
-1.559408 0.483596 4.273890 92 129 160
-1.557668 1.123739 4.285507 120 163 187
-1.550334 1.190971 4.268455 83 98 121
-1.552785 1.460603 4.280242 78 104 142
-1.554644 -1.800642 4.305968 152 165 185
-1.543668 1.027707 4.280379 42 83 106
-1.543668 1.027707 4.280379 42 83 106
-1.551316 -2.037997 4.319868 148 168 192
-1.535881 1.549920 4.274923 123 145 179
-1.494882 1.019700 4.177943 138 177 205
-1.534550 0.559424 4.279616 84 107 119
-1.530257 0.759214 4.277780 50 76 115
-1.529980 1.307235 4.281471 47 75 115
-1.528030 0.841945 4.278741 116 140 160
-1.526502 1.014967 4.283605 53 95 121
-1.530689 -1.984601 4.314939 101 117 144
-1.516752 0.907112 4.275040 130 171 190
-1.502850 0.198907 4.266313 143 171 188
-1.487031 -0.807729 4.311662 126 153 168
-1.485088 -2.039011 4.330972 215 223 227
-1.470746 -0.835491 4.317268 99 121 139
-1.463658 0.170852 4.303087 113 139 168
-1.439231 1.012846 4.304421 72 118 145
-0.366884 -0.525198 1.103573 119 139 156
-1.435704 0.842979 4.306188 23 48 76
-1.436219 -0.510628 4.314808 131 156 190
-1.434119 0.170466 4.306732 111 135 166
-1.432189 -0.475738 4.314120 20 41 55
-1.422771 -0.168771 4.310141 22 43 62
-1.422597 -0.523273 4.319679 0 17 30
-1.417088 0.177941 4.303675 12 37 60
-1.417163 -0.460437 4.319683 116 141 162
-1.410638 1.394651 4.306285 194 213 231
-1.411436 1.459050 4.309908 50 77 113
-1.409072 -0.506925 4.321969 105 122 145
-1.401840 -0.183350 4.300372 141 181 206
-1.403453 1.421946 4.309101 192 216 240
-1.403312 1.184960 4.328283 106 134 165
-1.395793 1.403924 4.305387 73 95 137
-1.396682 0.314419 4.326947 68 110 140
-1.380698 1.900441 4.308484 19 36 46
-1.381257 0.500933 4.314023 180 218 234
-1.387517 -0.737764 4.342222 119 145 179
-1.375273 -0.461135 4.318642 127 150 169
-1.376211 -0.057517 4.324506 26 52 88
-1.381632 -0.745349 4.346616 57 85 115
-1.370993 1.473108 4.319549 92 116 143
-1.351097 0.511734 4.266250 76 109 121
-1.367654 1.633819 4.335005 118 151 184
-1.362653 -0.171000 4.330790 180 214 237
-1.360131 1.294746 4.325667 113 139 182
-1.359978 0.722773 4.325851 167 195 230
-1.355402 0.584596 4.318245 51 75 100
-1.353314 1.229660 4.317575 105 127 149
-1.354136 0.758478 4.325140 185 209 243
-1.357048 -0.508831 4.339010 157 186 221
-1.350758 0.725177 4.328961 49 69 104
-1.348399 1.312157 4.324052 89 113 151
-1.349374 1.334875 4.328849 86 111 138
-1.356771 -1.167001 4.367394 145 165 189
-1.344627 1.457190 4.329136 94 121 142
-1.341913 0.692478 4.323380 128 153 188
-1.342918 0.758176 4.328764 46 72 106
-1.341583 1.342235 4.327773 176 206 234
-1.340843 1.421252 4.325617 69 101 138
-1.341461 1.504644 4.333988 114 142 170
-1.343132 0.604776 4.340503 110 135 168
-1.338166 1.352798 4.324797 55 85 114
-1.339026 -0.470187 4.331200 191 219 232
-1.339026 -0.470187 4.331200 191 219 232
-1.342810 -1.177666 4.368424 52 69 99
-1.329746 1.954374 4.332592 50 74 90
-1.327977 0.292454 4.332776 112 154 183
-1.335995 -0.853964 4.363731 50 75 111
-1.328062 -0.195615 4.338977 69 105 132
-1.328657 -0.826306 4.353782 115 142 167
-1.341178 -1.449600 4.400125 39 56 76
-1.323359 -0.508871 4.342684 59 88 121
-1.322677 0.256037 4.339517 120 151 176
-1.315838 1.614105 4.329655 94 124 152
-1.315838 1.614105 4.329655 94 124 152
-1.332336 -1.712027 4.391944 115 134 166
-1.309700 1.200997 4.308283 145 170 175
-1.319898 1.499994 4.348231 182 209 226
-1.319898 1.499994 4.348231 182 209 226
-1.235891 1.650192 4.195579 178 202 205
-1.312315 0.700416 4.332577 209 232 242
-1.310059 1.981901 4.330280 175 202 204
-0.395856 0.070976 1.309740 147 180 197
-1.310662 -0.349475 4.348600 44 66 99
-1.309706 -0.508486 4.350555 177 200 220
-1.304939 1.630138 4.338449 166 195 206
-1.313902 -1.451221 4.392798 209 233 246
-0.576525 -0.886576 1.895463 114 125 130
-1.200395 -1.347028 4.388132 122 147 147
-1.173162 -1.706085 4.436143 88 109 134
-1.165988 -1.792120 4.474263 73 92 121
-1.151045 -1.555461 4.433422 11 20 31
-1.147245 -1.727528 4.451746 18 32 40
-1.059357 1.275571 4.275690 41 63 57
-1.049325 1.364482 4.297152 98 122 116
-1.094468 -1.797657 4.491183 104 126 143
-1.030316 2.097526 4.294710 251 246 237
-1.024069 1.633194 4.312247 43 66 56
-1.024535 1.582911 4.319490 36 57 43
-1.064869 -1.791987 4.503149 79 105 134
-1.047882 -1.727151 4.539531 14 39 61
-1.032487 -1.597289 4.526321 73 86 104
-0.929779 1.361902 4.353963 63 82 76
-0.963002 -2.134533 4.504941 44 56 74
-0.963867 -2.130822 4.539248 31 45 58
-0.928927 -1.575218 4.575001 0 13 20
-0.891729 -1.564106 4.548887 0 7 17
-0.141320 -0.454165 1.686648 67 87 106
0.081774 -0.122131 0.811764 86 101 131
-0.325001 -1.070350 2.551538 144 160 163
0.159902 -0.014400 0.509607 77 95 120
-0.147779 -0.778686 1.512070 63 80 104
-0.090663 -0.509914 0.973420 67 79 109
-0.131712 -0.687849 1.464978 71 82 112
-0.039546 -0.519685 0.825677 217 229 229
0.118161 -0.117986 0.762486 58 73 99
-0.014054 -0.864673 1.704213 198 212 219
0.222296 -0.089321 0.869817 13 26 37
0.142776 -0.358298 1.180761 85 105 123
0.153659 -0.726880 1.541727 60 73 90
0.103582 -0.057275 0.758132 37 60 61
0.219152 -0.288390 1.105225 98 126 149
0.144232 -0.314453 0.628523 205 223 236
0.172384 0.212010 0.824117 76 92 88
0.177546 -0.179191 0.725836 92 119 153
0.267825 -0.056275 0.676015 153 169 191
0.326331 -0.015658 0.759601 28 46 56
0.227422 -0.347258 0.769622 135 143 151
0.487935 -0.012601 0.879440 42 58 72
0.293511 -0.200933 0.924862 120 141 173
0.285666 -0.127275 0.895646 149 178 210
0.224506 -0.006736 0.613834 57 73 106
0.352531 0.028748 0.690977 145 166 198
0.327542 -0.383500 0.982713 138 153 172
0.225853 -0.228491 0.658989 68 74 88
0.180796 -0.137576 0.509552 142 161 179
0.238632 0.015226 0.588483 9 20 32
0.271706 0.089831 0.666202 21 41 55
0.263692 0.066284 0.730676 185 204 236
0.210247 -0.228241 0.576805 72 93 126
0.292152 0.098040 0.728366 207 222 245
0.236332 -0.014361 0.461149 146 166 188
-3.012116 1.178358 3.936304 95 112 166
-2.976616 1.091693 3.915752 106 120 178
-1.888343 -0.172931 2.888604 125 158 196
-2.848631 0.889370 3.805615 43 62 83
-2.848631 0.889370 3.805615 43 62 83
-1.888671 -0.159132 2.897162 146 175 202
-3.042368 1.285310 4.033266 135 144 190
-2.496468 0.462558 3.535176 85 113 150
-2.185922 0.112354 3.251529 85 118 160
-3.844839 3.023313 4.886289 170 194 213
-2.898110 1.064446 3.983480 89 109 164
-3.832733 3.033399 4.888731 74 100 120
-0.870087 -1.200667 1.980419 230 233 234
-2.138896 0.098913 3.304231 80 112 160
-2.789526 0.999941 3.974383 153 172 222
-2.797119 1.000422 4.001270 78 99 149
-1.733889 -0.348615 2.922496 181 207 236
-2.002985 -0.058959 3.197941 128 156 191
-0.894280 -1.217500 2.064664 41 52 68
-1.724081 -0.380214 2.913217 132 149 167
-0.890910 -1.188300 2.064978 43 55 66
-1.944506 -0.133469 3.143433 154 179 186
-0.926979 -1.184606 2.106985 93 113 139
-2.299384 0.287490 3.518541 94 123 165
-1.870965 -0.178063 3.092882 193 221 246
-0.887797 -1.262741 2.079783 122 136 139
-2.632001 0.719371 3.884979 102 128 163
-1.751217 -0.333822 2.977654 33 54 79
-2.258212 0.181565 3.504708 160 185 199
-2.260824 0.181406 3.508610 160 185 199
-2.260824 0.181406 3.508610 160 185 199
-2.445076 0.475662 3.704545 201 228 249
-0.877463 -1.256882 2.079045 12 20 28
-3.566284 2.972278 4.851012 148 165 179
-1.737239 -0.377269 2.988053 136 155 160
-3.419595 2.338711 4.746563 80 96 146
-3.209409 1.878493 4.534208 147 162 201
-2.118121 0.080028 3.403834 114 146 191
-1.756760 -0.342905 3.030078 136 161 188
-0.898078 -1.215698 2.127559 86 97 123
-3.400654 2.402475 4.745729 192 207 229
-2.768200 1.045021 4.105295 175 195 226
-2.436445 0.462810 3.761434 138 158 180
-2.239573 0.195534 3.555663 153 175 192
-2.181961 0.139621 3.502865 11 31 49
-2.950762 1.383179 4.325183 29 37 39
-2.151407 0.109420 3.483851 61 88 133
-1.956429 -0.144577 3.275008 87 111 119
-1.899170 -0.167489 3.221140 170 197 228
-2.260369 0.195183 3.610485 133 156 174
-3.222708 1.967181 4.630621 172 188 208
-2.737782 1.071897 4.126704 180 194 224
-2.685571 0.952609 4.078002 174 199 211
-2.921629 1.491859 4.331400 53 73 115
-3.422017 2.870631 4.863994 72 101 139
-2.760892 1.097046 4.174968 152 174 223
-2.956077 1.531675 4.393066 75 96 142
-1.720265 -0.385430 3.068195 115 134 146
-3.056542 1.842921 4.500424 132 149 187
-2.228868 0.158450 3.620792 40 61 69
-2.302796 0.353345 3.706975 140 167 203
-2.302796 0.353345 3.706975 140 167 203
-2.771934 1.135482 4.219061 71 94 147
-3.121748 1.933210 4.599076 166 184 199
-3.361656 2.900954 4.850488 77 98 125
-3.230202 2.281806 4.723378 85 99 152
-3.230202 2.281806 4.723378 85 99 152
-2.850174 1.407399 4.322926 147 169 185
-3.401483 2.911251 4.908175 95 122 149
-2.824031 1.068165 4.309477 93 119 169
-2.614290 0.825107 4.081657 153 178 213
-1.927466 -0.176067 3.340954 159 187 222
-1.892714 -0.171371 3.360965 164 191 227
-2.783987 1.439085 4.361119 90 112 152
-2.998686 2.120833 4.602068 129 143 196
-2.633458 1.074187 4.200548 143 164 217
-3.240412 2.495455 4.869768 155 175 182
-3.149574 2.361303 4.779297 124 141 194
-2.377519 0.554808 3.973197 171 199 208
-2.312501 0.396647 3.906731 147 169 200
0.645379 -0.005199 0.539949 66 99 134
-2.465078 0.737227 4.081606 60 87 128
-2.872462 1.827862 4.554749 159 179 220
-2.154963 0.159991 3.746841 24 42 50
-3.056671 2.371115 4.765902 112 131 168
-2.720234 1.455238 4.391059 164 186 221
-3.092798 2.493412 4.827204 46 69 107
-1.899910 -0.167083 3.470151 139 163 197
-2.854950 1.824499 4.572436 82 103 145
-2.716213 1.518037 4.420105 63 89 135
-2.215045 0.292605 3.863603 194 216 238
-2.869828 1.949522 4.617442 78 97 142
-2.132771 0.140719 3.774311 161 185 213
-2.595107 1.183911 4.315289 152 174 228
-2.214276 0.319260 3.901974 77 107 147
-1.930713 -0.104962 3.573369 159 174 200
-2.901730 2.239848 4.701215 127 146 197
-2.656838 1.410993 4.423861 204 221 247
-2.340721 0.560126 4.073213 164 192 202
-2.955383 2.793553 4.780227 162 175 194
-2.514852 0.944431 4.282001 48 73 85
-2.594221 1.310388 4.375651 77 107 165
-2.922269 2.396349 4.765505 143 161 171
-2.867540 2.396562 4.705521 161 181 195
-2.650565 1.440168 4.462970 0 2 3
-2.580870 1.284854 4.387316 196 212 247
-2.580870 1.284854 4.387316 196 212 247
-2.676344 1.366617 4.500611 86 110 155
-2.576916 1.375131 4.386788 26 36 36
-2.592273 1.317117 4.410434 171 190 229
-1.283392 -1.101477 2.862207 5 4 4
-1.728776 -0.411618 3.392148 133 147 163
-1.970183 -0.018499 3.686332 128 151 179
-2.373707 0.598887 4.172776 8 10 20
-2.373707 0.598887 4.172776 8 10 20
-1.922523 -0.138416 3.635423 86 107 113
-2.714551 1.802047 4.575588 142 160 197
-0.923106 -1.362669 2.442916 51 69 88
-2.350057 0.675418 4.150706 5 8 13
-2.672169 1.693563 4.531681 157 175 220
-2.707789 1.810142 4.573496 158 175 215
-2.140077 0.182377 3.904030 158 184 191
-1.174579 -1.124638 2.756164 104 126 145
-1.919151 -0.115503 3.644915 19 30 31
-1.919151 -0.115503 3.644915 19 30 31
-1.738850 -0.440770 3.428115 12 7 4
-2.910816 2.445728 4.823910 124 141 161
-1.354941 -0.877571 2.980009 0 3 4
-2.293815 0.579753 4.107156 203 224 239
-1.886023 -0.171599 3.618766 142 165 201
-2.631807 1.735909 4.508940 145 166 214
-1.077513 -1.203366 2.646401 6 15 22
-2.559605 1.422780 4.427364 123 137 163
-1.117724 -1.171562 2.701117 96 123 140
-1.180494 -1.075665 2.779416 116 141 162
0.719826 -0.016974 0.389323 127 152 173
-2.506921 1.257914 4.374909 136 163 214
-2.537204 1.334336 4.408748 138 161 209
-1.531322 -0.670122 3.203840 2 4 3
-2.851502 2.400869 4.782465 139 165 168
-1.248410 -1.132677 2.860862 103 130 154
-1.273927 -1.014849 2.897319 49 79 119
-2.329315 0.694632 4.169914 159 191 214
-1.346116 -0.920250 2.985789 71 100 136
-1.369987 -0.887902 3.016913 139 159 167
-2.386090 0.729903 4.246030 138 171 194
-1.713391 -0.418192 3.432574 110 133 144
-2.248769 0.621165 4.087824 175 206 231
-1.892613 -0.172666 3.661920 141 165 199
-1.326457 -0.885489 2.978501 43 67 79
-2.367175 0.862425 4.250419 138 164 198
-1.203902 -1.084690 2.846584 36 57 76
-2.099745 0.169803 3.939772 102 128 145
-2.442214 1.175417 4.359579 90 117 171
-2.266373 0.569585 4.158963 157 182 190
-2.260989 0.595440 4.165201 175 198 215
-2.268938 0.584506 4.177753 82 108 124
-1.045463 -1.244135 2.676594 230 233 232
-2.704202 2.715318 4.709266 91 106 129
-2.715863 2.712769 4.726612 86 108 148
-1.321909 -0.882067 3.028056 99 124 145
-1.512920 -0.672736 3.265276 132 159 169
-1.880569 -0.172229 3.719752 145 169 204
-2.238471 0.594259 4.163573 165 195 205
-1.075528 -1.225418 2.726074 219 234 238
-2.524132 1.586987 4.518611 97 117 168
-2.431692 1.218183 4.422843 134 154 210
-2.391634 1.158561 4.378618 152 177 232
-2.391634 1.158561 4.378618 152 177 232
-2.106171 0.297485 4.034609 180 208 240
-0.974219 -1.340113 2.621838 46 67 75
-2.231207 0.548740 4.202127 58 86 99
-2.231207 0.548740 4.202127 58 86 99
-2.631529 2.686982 4.696597 92 110 142
-2.469988 1.581086 4.521594 90 109 161
-2.431604 1.601031 4.475809 152 171 221
-2.468019 1.817147 4.552503 165 183 204
-2.022480 0.170686 3.996195 30 55 84
-0.938778 -1.431632 2.622712 71 87 117
-1.878574 -0.159746 3.824213 28 49 64
-1.484588 -0.712644 3.329132 120 147 186
-1.710602 -0.413411 3.615850 145 171 187
-0.960739 -1.409715 2.660012 23 28 26
-0.982042 -1.334375 2.688564 9 13 13
-0.934992 -1.445431 2.630386 151 163 174
-0.988562 -1.370436 2.701659 146 162 166
-2.037169 0.188821 4.044205 32 49 59
-2.473910 1.972883 4.595295 147 166 216
-2.306354 1.154183 4.387810 68 92 147
-0.945134 -1.431887 2.649744 163 178 188
-2.476183 1.860147 4.604703 151 173 215
-1.236839 -1.130797 3.031447 14 31 46
-2.179180 0.569316 4.241721 175 194 201
-1.321148 -0.932127 3.146373 96 118 149
-0.966709 -1.357815 2.684294 14 29 34
-0.934878 -1.443777 2.646072 72 84 103
-2.394239 1.847070 4.521671 72 91 141
-1.994263 0.033276 4.028847 73 107 148
-2.464576 1.975289 4.639357 121 142 192
-1.938174 0.017646 3.970917 167 201 239
-1.057718 -1.292821 2.828644 67 86 107
-1.063801 -1.260118 2.838093 109 129 148
-1.827909 -0.174472 3.869173 154 186 219
-2.101261 0.427148 4.235752 98 134 177
-2.397210 2.015919 4.618214 59 80 132
-2.104494 0.574896 4.246522 168 191 202
-1.847640 -0.159383 3.919065 37 66 80
-1.320024 -0.918351 3.230165 117 145 172
-2.395064 2.188483 4.633593 106 126 170
-2.369679 2.016118 4.602324 128 150 202
-1.953566 0.063013 4.073556 115 153 191
-2.335438 1.852280 4.570966 52 74 121
-2.042572 0.435822 4.214024 70 102 149
-0.917412 -1.497086 2.716646 94 109 106
-2.301366 1.792215 4.549818 142 163 185
-0.963367 -1.447739 2.778676 122 137 145
-1.507359 -0.719196 3.511315 59 85 101
-1.981037 0.179809 4.138453 19 48 69
-1.998462 0.184985 4.171127 79 109 126
-1.998462 0.184985 4.171127 79 109 126
-0.905728 -1.511421 2.721653 215 219 222
-2.297277 2.572692 4.582347 72 91 119
-1.340289 -0.935554 3.324188 52 85 108
-1.942703 0.177588 4.143485 3 22 50
-0.916741 -1.514336 2.758321 98 109 103
-2.020157 0.543449 4.250895 80 105 120
-2.020157 0.543449 4.250895 80 105 120
-1.825675 -0.133712 3.989136 142 173 188
-0.932494 -1.496910 2.791140 81 93 112
-2.192843 1.576351 4.500829 82 107 156
-2.016375 0.546741 4.279910 70 97 109
-2.051779 0.893909 4.336286 168 193 216
-1.910886 0.178087 4.150737 61 94 122
-0.908202 -1.539162 2.778717 217 226 228
-2.006767 0.425737 4.285896 137 170 214
-1.483520 -0.725317 3.577147 30 60 74
-2.021931 0.566039 4.309623 175 198 206
-1.831398 -0.095542 4.054883 167 198 226
-1.831398 -0.095542 4.054883 167 198 226
-1.648099 -0.455207 3.808848 31 53 60
-1.827048 -0.139002 4.059326 162 190 203
-2.109929 1.288940 4.444584 133 155 210
-1.826897 -0.080421 4.068663 99 132 166
-1.989730 0.539358 4.292719 189 217 240
-1.989730 0.539358 4.292719 189 217 240
-2.189589 2.088972 4.555305 64 83 137
-1.996498 0.622539 4.309355 153 177 206
-1.959527 0.544565 4.259831 109 132 144
-2.024568 0.800169 4.354091 79 106 141
-2.024568 0.800169 4.354091 79 106 141
-2.030941 0.787697 4.366841 142 168 206
-0.913128 -1.545920 2.821631 213 220 216
-1.902522 0.182940 4.194217 78 110 134
-1.299513 -0.933621 3.369895 116 145 163
-0.919051 -1.521378 2.838544 75 86 109
-1.456354 -0.744392 3.591818 161 193 221
-1.449205 -0.739119 3.582062 136 170 191
-1.449205 -0.739119 3.582062 136 170 191
-1.993138 0.756273 4.332161 143 168 207
-1.978594 0.764157 4.313238 77 101 140
-1.635261 -0.442326 3.855216 150 172 187
-1.894890 0.183785 4.217829 81 113 137
-0.946064 -1.523698 2.895587 112 126 147
-1.791825 -0.159605 4.082679 51 79 94
-2.121400 1.897040 4.527846 74 96 148
-1.961068 0.550332 4.321513 81 104 118
-1.961068 0.550332 4.321513 81 104 118
-1.318145 -0.963368 3.431698 50 79 93
-1.318145 -0.963368 3.431698 50 79 93
-1.467407 -0.738790 3.642394 28 61 76
-1.638503 -0.441225 3.907397 158 185 201
-1.927067 0.548400 4.311329 86 109 126
-1.916608 1.024786 4.299440 88 120 175
-1.916608 1.024786 4.299440 88 120 175
-1.931817 0.775026 4.321476 126 154 194
-1.949809 0.758560 4.355118 81 108 151
-1.334404 -0.947988 3.494548 69 103 130
-1.898646 0.521037 4.288556 106 133 169
-1.433744 -0.826155 3.640741 111 142 179
-1.839206 0.182464 4.208878 76 109 132
-1.426670 -0.781081 3.637293 166 191 220
-1.944185 0.972404 4.366029 111 146 175
-2.023018 1.776612 4.466690 63 84 131
-1.314703 -0.961000 3.487591 141 170 185
-2.029460 1.906906 4.484626 71 92 145
-1.937589 0.883161 4.369458 49 72 111
-1.937589 0.883161 4.369458 49 72 111
-0.898619 -1.602552 2.890265 0 10 18
-2.002396 1.820215 4.448397 157 181 227
-2.041278 1.886915 4.507311 141 163 211
-1.606013 -0.444686 3.909359 175 199 216
-1.971917 1.506278 4.411367 134 156 207
-1.963995 0.960351 4.419337 167 194 210
-1.836811 0.211504 4.239869 152 180 190
-1.965032 1.268084 4.423737 233 244 253
-1.839977 0.223399 4.260556 159 186 198
-2.054202 1.846940 4.558240 85 103 130
-1.736835 -0.189554 4.120854 19 39 52
-1.348720 -0.970654 3.569625 26 46 55
-1.740445 -0.174847 4.131726 95 120 135
-1.801130 0.160655 4.219334 61 91 128
-1.576552 -0.483412 3.904162 135 168 195
-1.982192 1.363245 4.478697 82 104 140
-1.812589 0.222717 4.241981 11 28 35
-1.812589 0.222717 4.241981 11 28 35
-1.981660 1.306786 4.480664 25 30 27
-1.479845 -0.733746 3.773868 133 162 178
-2.024903 2.029703 4.537182 15 16 12
-1.828870 0.195869 4.276387 78 105 123
-1.590401 -0.472557 3.936743 29 57 70
-1.965801 1.374691 4.478631 97 119 157
-1.323416 -0.981901 3.565949 93 120 134
-1.808980 0.213086 4.266312 136 161 181
-1.444510 -0.762451 3.744536 114 137 148
-1.457262 -0.735430 3.767456 59 87 101
-1.884146 0.889928 4.377910 159 185 211
-1.170414 -1.225947 3.351716 77 91 111
-1.896205 1.137017 4.400778 153 174 193
-1.864801 0.516476 4.364405 101 132 167
-1.912769 1.364876 4.429645 146 168 210
-1.896787 1.133625 4.413397 135 162 194
-1.959272 2.038810 4.488702 157 173 199
-1.346683 -1.007283 3.620350 36 60 76
-1.603941 -0.419619 4.003669 131 154 173
-1.565177 -0.478969 3.950392 128 156 177
-1.565177 -0.478969 3.950392 128 156 177
-1.933886 1.696218 4.471393 4 17 20
-1.162960 -1.194768 3.365388 102 121 139
-1.187254 -1.220892 3.399393 26 40 53
-1.172796 -1.254287 3.376410 78 99 132
-1.784985 0.209379 4.273703 165 194 216
-1.791094 0.210090 4.283686 165 194 216
-1.689817 -0.195950 4.141846 178 214 247
-1.444153 -0.750758 3.789194 33 54 63
-1.427414 -0.767396 3.763956 90 115 153
-1.795067 0.591611 4.294515 137 159 176
-1.785814 0.145069 4.287170 112 141 186
-1.825790 0.559536 4.346849 167 191 194
-1.158112 -1.262698 3.381606 59 86 116
-0.903936 -1.553788 3.019412 61 80 99
-1.802663 0.520503 4.369572 129 162 197
-0.894234 -1.659893 3.020973 37 44 61
-1.812477 1.258995 4.388116 10 20 34
-1.065814 -1.412347 3.289546 16 20 22
-1.065814 -1.412347 3.289546 16 20 22
-1.663624 -0.174637 4.186438 151 180 208
-1.433511 -0.755937 3.852293 46 71 81
-1.168132 -1.233438 3.456148 44 60 80
-1.834118 1.476869 4.437389 76 107 149
-1.834118 1.476869 4.437389 76 107 149
-1.638643 -0.206937 4.163982 164 200 239
-0.918754 -1.618636 3.082124 65 83 106
-1.858697 1.205391 4.492067 138 172 207
-1.643254 -0.188812 4.186496 67 99 141
-1.804170 1.446587 4.411981 156 187 229
-1.800630 1.275148 4.415600 10 18 18
-1.800630 1.275148 4.415600 10 18 18
-1.618856 -0.202849 4.161216 147 182 224
-1.835253 2.018810 4.459670 120 137 181
-1.859791 2.180993 4.507388 42 68 107
-1.777036 1.249150 4.409411 197 214 248
-1.789762 1.401255 4.428427 71 105 147
-1.762381 1.886115 4.401160 109 128 179
-1.762381 1.886115 4.401160 109 128 179
-1.521382 -0.455593 4.068229 44 71 91
-1.799333 2.033221 4.455344 23 31 35
-1.274981 -1.002760 3.698802 89 111 132
-1.267787 -1.013258 3.689852 5 25 39
-1.741694 1.244152 4.406971 182 202 238
-1.763130 1.072528 4.448287 142 179 200
-1.247626 -1.019128 3.676826 72 93 118
-1.681739 0.527657 4.335934 33 56 69
-1.681739 0.527657 4.335934 33 56 69
-1.736169 1.358325 4.410378 192 219 248
-1.507009 -0.467269 4.088064 46 66 79
-1.507009 -0.467269 4.088064 46 66 79
-1.520176 -0.457051 4.113852 30 55 74
-1.616760 -0.091197 4.265139 125 156 185
-0.886471 -0.856528 3.161113 108 130 149
-0.883154 -1.701279 3.139383 5 11 22
-0.888596 -1.705893 3.148528 5 11 22
-0.910230 -1.664437 3.183305 7 16 17
-1.663017 0.853713 4.354735 89 117 156
-1.657071 1.341443 4.344841 148 180 213
-0.942757 -1.625404 3.249741 111 123 135
-0.953831 -1.634201 3.268632 105 117 132
-1.609634 0.161977 4.292478 158 192 222
-1.653566 0.907972 4.355973 167 192 201
-1.034448 -1.427813 3.409930 151 169 188
-1.237855 -1.014309 3.731690 34 59 75
-1.640522 0.853770 4.350111 183 211 243
-0.878238 -1.708224 3.173237 58 68 82
-1.610735 0.569674 4.327193 43 61 72
-1.664438 1.166827 4.409907 129 166 192
-1.640799 0.881716 4.377228 32 48 53
-1.620304 2.071433 4.322618 129 154 191
-1.655459 1.223296 4.397675 116 139 180
-1.609432 0.580871 4.342747 10 33 43
-1.640234 1.478052 4.382559 163 189 229
-1.577210 0.699946 4.324055 69 96 136
-1.614663 1.148514 4.381351 145 186 210
-1.608214 1.109419 4.372607 155 195 220
-1.577170 1.041171 4.336543 50 94 115
-1.118014 -1.278211 3.631764 82 104 135
-1.575703 0.869562 4.352195 48 79 89
-1.592973 1.515653 4.371918 69 94 137
-1.576578 1.079613 4.354461 47 74 99
-1.532507 0.716838 4.294376 77 106 150
