ply
format ascii 1.0
element vertex 1230
property float x
property float y
property float z
property uchar red
property uchar green
property uchar blue
end_header
-1.394563 0.781208 3.923808 135 159 206
-1.423807 0.544320 4.018383 141 157 173
-1.385684 1.009943 3.906222 47 64 99
-1.410949 0.831208 3.984393 134 155 167
-1.378785 1.071750 3.896329 126 146 197
-1.405014 0.576436 3.993680 0 3 24
-1.413539 0.676439 4.017980 56 75 128
-1.413539 0.676439 4.017980 56 75 128
-1.356190 0.998077 3.862080 60 76 113
-1.356190 0.998077 3.862080 60 76 113
-1.373379 1.075338 3.906387 36 52 100
-1.404235 0.519592 4.009241 49 60 74
-1.375933 0.720646 3.948236 114 133 189
-1.389778 0.568554 3.992340 138 155 181
-1.363880 0.826021 3.918501 182 203 222
-1.367827 0.964722 3.928211 143 174 208
-1.365404 0.963471 3.923615 143 174 208
-1.363376 1.001538 3.921269 158 192 226
-1.361781 0.781808 3.933574 23 39 83
-1.597747 -1.859772 4.653870 16 24 39
-1.432482 0.213902 4.147238 105 122 174
-1.368644 0.841501 3.959183 62 87 113
-1.368644 0.841501 3.959183 62 87 113
-1.340652 0.897075 3.887226 131 169 204
-1.353011 0.793014 3.924114 114 130 160
-1.321159 1.068869 3.832041 74 85 114
-1.378410 0.709135 4.000496 61 82 136
-1.379554 0.693452 4.006384 68 89 143
-1.355707 0.939767 3.934945 52 89 125
-1.332118 1.184050 3.870230 56 80 134
-1.585826 -1.994452 4.666945 109 120 161
-1.353127 0.927017 3.941079 126 168 202
-1.377391 0.483997 4.023106 129 160 197
-1.372084 0.840243 4.000386 133 151 177
-1.372084 0.840243 4.000386 133 151 177
-1.345943 0.954897 3.932024 142 181 216
-1.327250 1.111439 3.884426 122 134 154
-1.341487 0.960246 3.930631 138 173 208
-1.297835 1.175665 3.813067 122 145 196
-1.297835 1.175665 3.813067 122 145 196
-1.317706 0.964138 3.877179 71 92 128
-1.404983 0.232599 4.147528 19 38 52
-1.358285 0.541748 4.011392 136 151 168
-1.352078 0.587370 4.000034 145 160 195
-1.319555 0.803972 3.930987 145 165 186
-1.335021 0.839888 3.975524 89 114 140
-1.336889 0.574389 4.000381 136 152 181
-1.329877 0.868503 3.984551 130 169 204
-1.320940 0.541257 4.025815 142 159 174
-1.265796 1.280194 3.844798 116 138 189
-1.339634 0.251356 4.098296 140 164 193
-1.300976 0.819381 3.972316 48 63 81
-1.288697 0.801871 3.939151 155 178 207
-1.223379 1.631595 3.726769 124 137 153
-1.508660 -1.885192 4.676209 120 135 177
-1.509661 -1.855029 4.679934 33 44 67
-1.305677 0.519951 4.019129 41 57 68
-1.501470 -2.026641 4.679861 35 48 88
-1.261035 1.105451 3.894233 130 147 166
-1.256780 1.134077 3.883082 52 69 113
-1.275512 0.812611 3.965194 59 78 96
-1.282995 0.827809 3.997687 120 140 161
-1.214510 1.354770 3.784405 8 22 29
-1.237436 1.071791 3.862011 137 158 191
-1.491230 -2.074605 4.719604 209 213 228
-1.483374 -2.039407 4.704822 109 120 154
-1.214382 1.231378 3.817776 190 205 232
-1.266767 0.832929 3.987051 60 84 113
-1.266767 0.832929 3.987051 60 84 113
-1.292418 0.516992 4.075385 56 77 100
-1.250882 0.795761 3.946728 108 128 169
-1.235476 1.105990 3.894440 134 152 168
-1.202393 1.362187 3.795286 136 155 180
-1.239622 1.076374 3.925049 116 137 177
-1.275833 0.507761 4.060559 163 191 217
-1.212728 1.280878 3.844888 196 213 243
-1.259791 0.580358 4.012996 151 171 203
-1.212886 1.356540 3.845869 31 48 77
-1.267563 0.543774 4.041276 164 182 197
-1.231258 0.805232 3.927733 34 57 85
-1.269034 0.530985 4.057832 141 161 177
-1.259354 0.520367 4.030474 60 84 109
-1.191934 1.291698 3.803463 91 104 151
-1.190084 1.309813 3.799529 161 177 209
-1.190563 1.285466 3.815185 207 221 251
-1.205939 1.291150 3.859973 207 221 251
-1.198853 1.175029 3.846064 74 95 142
-1.180622 1.366784 3.787248 142 161 190
-1.277348 0.234964 4.123419 10 26 52
-1.185333 1.328197 3.806778 74 100 148
-1.180160 1.356016 3.794616 17 35 55
-1.247565 0.676355 4.023548 49 65 113
-1.205476 1.201967 3.878231 188 205 240
-1.241423 0.601893 4.021248 84 102 148
-1.417733 -1.785049 4.661232 50 68 96
-1.186143 1.184785 3.847186 202 219 251
-1.356524 -1.165453 4.463197 34 47 84
-1.227719 0.719112 3.999755 70 84 137
-1.169226 1.345169 3.799767 166 189 216
-1.227432 0.779471 3.999211 89 110 159
-1.234580 0.620816 4.036175 141 160 206
-1.234580 0.620816 4.036175 141 160 206
-1.229272 0.680886 4.020598 159 180 226
-1.266445 0.226586 4.156549 182 205 236
-1.197965 1.073843 3.914564 93 113 142
-1.412435 -1.796950 4.689895 87 106 133
-1.188941 1.204576 3.889571 198 216 249
-1.210535 0.730725 3.982122 182 202 246
-1.238856 0.518966 4.078116 180 207 232
-1.178364 1.079423 3.872287 203 227 238
-1.251754 0.247046 4.131655 71 93 114
-1.128546 1.685445 3.698709 73 92 142
-1.145560 1.464666 3.765588 55 75 134
-1.170879 1.118010 3.858246 186 204 248
-1.165096 1.214677 3.836471 172 194 225
-1.165096 1.214677 3.836471 172 194 225
-1.226401 0.579242 4.055351 183 201 234
-1.207614 0.653345 3.995769 78 98 145
-1.182171 1.056750 3.906261 93 118 162
-1.168068 1.107958 3.867724 187 206 236
-1.167652 1.290853 3.858900 151 175 209
-1.353331 -1.738644 4.561634 84 103 128
-1.213904 0.616648 4.038642 142 162 208
-1.203024 0.747163 3.999522 83 106 152
-1.383278 -1.761205 4.663205 54 71 103
-1.252054 0.239450 4.178122 212 231 241
-1.164376 1.117037 3.871903 128 147 183
-1.202927 0.658850 4.010410 102 119 168
-1.217155 0.572970 4.058513 117 138 169
-1.197223 0.785209 3.992929 142 165 212
-1.200893 0.802928 4.005436 209 229 243
-1.197093 0.673155 4.001889 92 110 156
-1.241546 0.220605 4.162473 194 214 240
-1.201206 0.689818 4.022937 178 198 241
-1.133108 1.575033 3.773703 52 73 124
-1.138118 1.381195 3.800240 171 191 217
-1.190203 0.826537 3.987907 214 230 248
-1.170843 0.952618 3.924937 107 131 183
-1.133766 1.546714 3.785596 55 75 126
-1.165248 1.123652 3.903903 158 177 220
-1.120426 1.687676 3.742401 109 129 158
-1.200443 0.619239 4.039835 108 127 163
-1.193828 0.700687 4.017544 108 126 165
-1.185652 0.682399 3.994157 125 142 178
-1.171358 0.864875 3.946799 123 151 190
-1.137516 1.321562 3.823030 87 109 141
-1.127480 1.559156 3.779286 97 115 157
-1.141917 1.268301 3.841387 74 97 139
-1.106871 1.761133 3.709498 200 220 234
-1.337881 -1.274405 4.568242 39 59 109
-1.169140 1.084283 3.937697 200 217 219
-1.172345 0.918734 3.956390 125 147 188
-1.173481 0.803519 3.967495 183 200 206
-1.192787 0.556397 4.041286 214 232 243
-1.173229 0.877375 3.965121 112 139 175
-1.144444 1.276208 3.864465 204 224 251
-1.155005 1.117455 3.907140 92 109 141
-1.191452 0.651279 4.043078 201 218 238
-1.135087 1.389876 3.838199 204 222 242
-1.165744 0.942202 3.957718 185 208 230
-1.210610 0.331173 4.126743 200 220 239
-1.147556 1.171373 3.895698 187 210 227
-1.348479 -1.525473 4.660222 4 11 36
-1.333395 -1.444827 4.629435 103 123 148
-1.315803 -1.283792 4.569013 142 163 184
-1.330257 -1.555601 4.670502 69 76 102
-1.288214 -1.821036 4.728240 15 25 46
-1.256212 -1.522086 4.686097 88 99 115
-1.224071 -1.360402 4.650314 192 211 224
-1.228286 -1.784793 4.686940 8 20 50
-1.029054 1.277552 3.939255 62 75 77
-1.188115 -1.511578 4.667825 1 9 23
-1.168101 -0.983056 4.571603 11 23 22
-1.170237 -1.005607 4.581953 25 25 27
-1.182779 -1.523469 4.659684 10 13 27
-1.198967 -2.123404 4.803443 77 89 123
-1.167905 -1.501947 4.683842 92 105 121
-1.173203 -1.813970 4.745588 87 105 141
-1.174269 -1.973646 4.767734 76 90 123
-1.013704 1.200794 3.999605 107 123 125
-1.177892 -2.060424 4.788495 86 96 131
-1.166862 -1.780189 4.734679 12 24 40
-1.017951 1.156530 4.021981 109 132 136
-0.969071 1.426039 3.929361 67 86 83
-1.127300 -1.817233 4.761443 34 44 60
-1.127300 -1.817233 4.761443 34 44 60
-0.946158 1.769362 3.865991 111 120 130
-0.966419 1.177915 4.014777 111 133 137
-1.098165 -1.649545 4.724797 12 31 60
-1.092711 -1.484378 4.697288 95 112 131
-0.931097 1.727514 3.876369 49 65 74
-0.935274 1.390723 3.965906 14 29 33
-1.077363 -1.547991 4.723605 43 54 71
-0.907944 1.846340 3.841554 192 200 205
-1.071492 -1.480845 4.704867 109 130 148
-0.926331 1.421928 3.954811 105 121 120
-0.910087 1.783100 3.869963 176 189 204
-1.050392 -0.914538 4.608510 40 55 60
-0.902465 1.796381 3.846948 54 56 59
-1.078464 -2.217396 4.822529 89 96 115
-1.061715 -1.707202 4.731100 89 116 151
-1.061715 -1.707202 4.731100 89 116 151
-0.921327 1.263512 4.011621 55 74 77
-0.922443 1.208779 4.020177 36 52 55
-1.069836 -2.105878 4.845526 67 81 121
-1.032072 -1.764441 4.733973 72 85 119
-1.039588 -2.224379 4.839544 98 103 118
-1.043676 -1.529456 4.810174 77 94 114
-1.017295 -1.774647 4.779144 6 20 47
-1.014219 -1.752983 4.771439 96 119 156
-1.042203 -1.614123 4.897334 96 115 139
-1.013085 -2.199125 4.858026 128 138 157
-0.988877 -1.464260 4.723524 26 38 53
-0.992219 -1.520493 4.748911 5 10 24
-1.007978 -2.218314 4.878361 97 102 119
-0.973115 -1.448941 4.705824 107 125 142
-0.992091 -2.200895 4.866427 111 117 144
-1.006785 -1.605304 4.899567 83 100 119
-0.972448 -1.663314 4.761002 28 56 90
-0.982910 -2.210973 4.869997 63 71 92
-0.954385 -1.566385 4.744086 29 48 75
-0.966027 -2.202735 4.881454 62 68 97
-0.952247 -2.196588 4.867948 50 55 83
-0.933351 -1.742985 4.764832 14 31 63
-0.963764 -1.585815 4.918037 125 142 158
-0.915340 -1.521257 4.922586 3 14 31
-0.899809 -2.195231 4.900031 54 61 91
-0.769677 1.400074 3.999256 24 39 40
-0.911371 -1.568931 4.959204 21 29 48
-0.900996 -1.578134 4.941109 85 103 123
-0.867765 -1.719982 4.792295 93 122 161
-0.875981 -2.107566 4.906077 14 18 20
-0.875981 -2.107566 4.906077 14 18 20
-0.759650 1.319718 4.040058 111 134 140
-0.863186 -2.105136 4.866340 21 25 41
-0.841314 -1.456903 4.748467 92 112 130
-0.841314 -1.456903 4.748467 92 112 130
-0.746355 1.230216 4.060266 115 139 145
-0.844563 -2.196674 4.911667 66 71 94
-0.729507 1.405728 4.021959 16 28 36
-0.734257 1.282356 4.068108 35 45 42
-0.732914 1.361920 4.056417 110 135 141
-0.722549 1.471229 4.004165 7 25 32
-0.724564 1.199055 4.052282 44 61 66
-0.807718 -1.427870 4.753184 124 144 161
-0.776431 -1.432191 4.737790 94 115 131
-0.703673 1.235027 4.100713 117 142 149
-0.703673 1.235027 4.100713 117 142 149
-0.781262 -2.194132 4.933115 115 123 135
-0.682359 1.399050 4.060833 80 96 104
-0.756119 -1.461811 4.767709 25 28 49
-0.768738 -2.185006 4.934568 201 209 218
-0.743515 -1.479890 4.790203 64 78 103
-0.747020 -2.191798 4.931197 194 197 204
-0.728661 -1.416751 4.766152 22 41 57
-0.722299 -1.466648 4.785519 0 8 27
-0.730962 -2.144125 4.940398 205 210 231
-0.640520 1.229229 4.107568 123 145 152
-0.634900 1.198240 4.133835 13 29 33
-0.702199 -2.229033 4.963853 6 6 10
-0.702199 -2.229033 4.963853 6 6 10
-0.627372 1.267754 4.110526 11 20 27
-0.695139 -2.199800 4.960259 199 205 216
-0.622697 1.149517 4.139449 123 146 154
-0.614779 1.161394 4.145668 116 140 148
-0.659668 -1.622444 4.863995 31 54 91
-0.633909 -1.487880 4.848335 57 80 116
-0.570727 1.276495 4.134882 121 139 147
-0.627904 -2.194736 4.993351 194 201 218
-0.622047 -2.134331 4.949666 58 68 114
-0.606341 -1.446908 4.826759 12 15 27
-0.552244 1.225921 4.132853 122 145 152
-0.590953 -1.630088 4.851997 20 45 81
-0.533588 1.263327 4.155564 71 91 99
-0.535126 1.206405 4.175429 57 76 84
-0.570989 -1.464103 4.849494 102 115 142
-0.524609 -2.131393 5.000447 104 119 156
-0.503768 -1.729191 4.910749 80 95 132
-0.495361 -1.465501 4.888677 16 24 36
-0.486402 -1.419620 4.867364 6 9 22
-0.467784 -2.118940 5.016298 80 84 118
-0.462946 -1.386805 4.874043 65 81 97
-0.462946 -1.386805 4.874043 65 81 97
-0.447527 -1.774292 4.943291 47 60 90
-0.439226 -1.439593 4.897189 0 3 13
-0.423356 -1.407866 4.888280 8 14 25
-0.415889 -1.450938 4.906080 123 141 163
-0.411737 -1.653461 4.920074 95 120 161
-0.402964 1.211842 4.264978 81 100 109
-0.402964 1.211842 4.264978 81 100 109
-0.408635 -1.648541 4.940593 74 107 148
-0.407741 -2.144215 5.071628 124 134 175
-0.397295 -1.465025 4.908311 84 105 137
-0.392339 -1.473301 4.902103 71 94 127
-0.386811 -1.463959 4.915998 10 24 45
-0.382417 -1.507591 4.926171 72 103 140
-0.363974 -1.492904 4.928339 19 30 48
-0.354627 -1.427391 4.916953 31 37 54
-0.351814 -1.589667 4.918757 95 129 165
-0.341791 0.129420 3.871626 149 159 161
-0.341953 -2.129128 5.064303 127 137 174
-0.328198 0.206715 4.497558 6 5 5
-0.328198 0.206715 4.497558 6 5 5
-0.324558 -2.139743 5.087111 76 89 133
-0.323973 -1.559257 4.953394 17 26 31
-0.319169 -2.098262 5.055935 189 197 208
-0.317609 -1.786263 5.000978 41 56 82
-0.316245 -1.694499 4.979020 88 103 138
-0.313434 -2.162874 5.092474 95 110 156
-0.313434 -2.162874 5.092474 95 110 156
-0.316434 0.230870 4.487496 136 163 171
-0.316434 0.230870 4.487496 136 163 171
-0.314340 -1.604653 4.956874 113 143 177
-0.319026 0.116944 3.906320 138 152 159
-0.319026 0.116944 3.906320 138 152 159
-0.310852 -2.100432 5.094353 79 84 120
-0.306470 -2.049393 5.065235 158 170 195
-0.307134 0.191501 4.514420 11 13 13
-0.307134 0.191501 4.514420 11 13 13
-0.298529 -2.073849 5.089195 89 99 133
-0.296662 -2.109091 5.089788 184 190 221
-0.297103 -1.741682 4.993465 105 121 150
-0.296853 -1.719141 4.991365 61 78 112
-0.294797 -1.764089 5.006417 51 66 96
-0.044320 -0.175681 1.082491 89 97 118
-0.292481 -2.087866 5.095302 71 80 120
-0.295592 0.190070 3.883043 5 4 7
-0.295592 0.190070 3.883043 5 4 7
-0.288664 -1.641869 4.962317 145 166 194
-0.283340 -1.914532 5.041916 83 90 110
-0.283921 -1.613648 4.976769 19 26 26
-0.276636 -1.433477 4.961964 126 140 157
-0.269456 -1.932852 5.051563 11 15 18
-0.284771 0.122172 3.934809 155 173 180
-0.278163 0.185343 4.538225 155 173 180
-0.267021 -1.673893 5.015781 16 19 23
-0.276038 0.142949 3.934360 9 15 14
-0.276038 0.142949 3.934360 9 15 14
-0.417936 -1.611300 4.839092 39 52 71
-0.254524 -1.684894 4.991799 17 22 23
-0.405999 -1.569263 4.828084 107 116 129
-0.243746 -1.959362 5.045077 23 28 28
-0.260901 0.177513 3.922893 136 161 173
-0.241758 -2.132914 5.119186 74 84 130
-0.243445 -1.866293 5.050816 60 72 98
-0.392898 -1.576670 4.831015 0 6 18
-0.230288 -2.039036 5.097036 188 199 230
-0.253706 0.113763 3.975069 134 161 171
-0.224903 -2.106446 5.122791 205 208 222
-0.221323 -1.947548 5.074334 16 22 34
-0.376586 -1.562518 4.832771 14 22 36
-0.214147 -2.037995 5.086928 73 84 119
-0.204500 -2.120935 5.122778 49 61 104
-0.204363 -2.121034 5.121358 48 61 107
-0.222637 0.200208 3.950577 6 5 0
-0.224881 0.078208 4.027188 2 6 7
-0.224881 0.078208 4.027188 2 6 7
-0.176586 -2.021465 5.107096 177 189 211
-0.175811 -2.126227 5.162010 57 69 114
-0.195197 0.248776 4.579901 140 155 163
-0.204322 0.097458 4.036924 122 150 162
-0.144061 -1.952634 5.121102 162 177 191
-0.168501 0.233984 4.583932 127 159 168
-0.136906 -2.095917 5.154130 172 179 197
-0.140699 -1.643309 5.035734 76 90 133
-0.128271 -1.628531 5.055807 15 28 68
-0.115201 -1.386448 5.036822 13 19 34
-0.101529 -2.063524 5.163789 80 90 131
-0.090471 -2.039543 5.151348 121 131 171
-0.142553 0.172698 4.050492 10 8 6
-0.142553 0.172698 4.050492 10 8 6
-0.068219 -2.083880 5.172097 198 203 215
-0.070621 -1.955604 5.160914 115 124 147
-0.074470 -1.418707 5.054714 73 86 111
-0.069423 -1.568324 5.069961 84 108 154
-0.118654 0.158432 4.079416 132 145 144
-0.114978 0.167800 4.081369 47 53 53
-0.050671 -2.040792 5.167513 76 87 136
-0.057719 -1.562835 5.088329 75 96 145
-0.046281 -2.102803 5.175469 52 60 97
-0.043087 -1.945026 5.168174 86 98 135
-0.102419 0.223494 4.055614 3 7 9
-0.102419 0.223494 4.055614 3 7 9
-0.049427 -1.392199 5.074389 13 18 34
-0.076764 0.241912 4.652322 9 8 6
-0.099849 0.150865 4.102385 6 7 8
-0.030603 -2.021257 5.173619 180 189 224
-0.027589 -1.571184 5.076867 37 54 99
-0.060283 0.219088 4.690803 160 174 181
-0.060283 0.219088 4.690804 160 174 181
-0.085479 0.191633 4.093828 2 5 9
-0.085479 0.191633 4.093828 2 5 9
-0.017380 -1.970126 5.185595 16 21 28
-0.007593 -2.120561 5.211884 145 154 198
0.001936 -1.939421 5.170044 212 217 237
0.006085 -1.959462 5.176718 10 12 16
0.006379 -1.595996 5.098813 18 35 81
0.016925 -1.603446 5.089022 84 102 147
0.044637 -2.113427 5.273001 128 131 152
0.044670 -2.110227 5.229458 207 216 242
0.049770 -2.051895 5.201217 194 193 206
0.049770 -2.051895 5.201217 194 193 206
0.050671 -2.005607 5.207993 90 99 132
0.054173 -2.070499 5.218367 209 209 222
0.046391 -1.355274 5.115639 3 9 27
0.068061 -1.932699 5.205055 175 182 211
0.076435 -1.971051 5.199103 122 132 162
0.065729 -1.355722 5.078901 15 22 38
0.093763 -2.007338 5.210512 79 94 133
0.116005 -2.284790 5.269876 215 221 233
0.111467 -2.058424 5.246693 199 206 220
0.098536 -1.408125 5.154134 64 78 110
0.095508 -1.372812 5.017327 39 54 92
0.102664 -1.448949 5.159357 13 24 39
0.103413 -1.418614 5.160483 40 57 93
0.127161 -2.276865 5.289303 77 88 116
0.118529 -1.909731 5.210113 82 97 131
0.129178 -1.714447 5.188529 125 141 178
0.137736 -1.984045 5.248796 14 16 18
0.130266 -1.363598 5.142290 14 21 37
0.151175 -1.932431 5.251415 183 194 210
0.154915 -1.899837 5.238762 146 162 196
0.168178 -2.003111 5.260672 93 101 120
0.154744 -1.421114 5.151229 13 25 45
0.156279 -1.374498 5.151571 21 27 44
0.156279 -1.374498 5.151571 21 27 44
0.236536 -1.404111 5.247087 2 6 24
0.281958 -2.028934 5.330431 78 89 122
0.291940 -2.216223 5.336442 61 77 124
0.270028 -1.404024 5.235919 103 117 137
0.281631 -1.415646 5.231241 7 18 44
0.297139 -1.402872 5.248419 89 103 124
0.323177 -2.030229 5.364814 67 80 115
0.299799 -1.341108 5.240696 3 11 20
0.331584 -2.031092 5.344378 193 199 225
0.331584 -2.031092 5.344378 193 199 225
0.338196 -1.321149 5.258013 83 93 106
0.383987 -1.461745 5.268506 89 112 141
0.404412 -1.461425 5.291469 19 31 50
-0.114657 0.478907 8.004075 21 28 43
-1.132854 -0.313608 5.333190 18 27 48
-2.239572 0.488626 8.319613 127 141 157
-0.253346 -0.641213 3.012002 134 142 150
0.416438 0.124513 6.299419 24 36 47
-2.770293 2.585235 11.546652 95 114 120
0.654365 -0.799559 10.507191 71 77 99
-1.556849 -12.458989 35.696678 62 72 108
-0.330226 0.149158 3.915686 107 125 130
-0.329273 0.117373 3.849985 115 131 133
-0.329273 0.117373 3.849985 115 131 133
-0.310853 0.214650 4.282255 109 131 138
-0.157029 -7.717906 20.107771 192 203 210
-0.306142 0.208108 4.142539 120 139 146
-0.298418 -1.682582 5.729113 22 34 45
-0.230830 0.140723 3.858449 119 130 136
-0.224651 0.050882 3.918844 87 116 129
-0.286990 -1.551366 4.598372 79 93 107
-0.286990 -1.551366 4.598372 79 93 107
-0.181805 0.127650 3.916873 105 125 131
0.191461 -0.505764 2.328184 134 148 155
-0.132305 0.061917 4.003993 13 9 7
-0.107863 0.128828 3.978693 2 6 11
-0.107863 0.128828 3.978693 2 6 11
0.774432 -0.066561 2.888601 68 81 113
2.242349 -4.280610 14.833567 30 38 44
2.270055 -4.163910 14.589581 85 98 130
2.123533 -4.152052 13.987073 209 222 237
0.747909 -2.689879 7.110941 194 205 216
0.313741 -1.604048 4.892551 81 108 143
0.759871 -2.557394 8.550089 81 91 113
0.346324 -1.626820 4.902015 128 144 163
0.705164 -0.356817 2.917530 153 163 170
0.428864 -1.233359 4.664487 4 9 14
0.428864 -1.233359 4.664487 4 9 14
1.110938 -0.531354 4.073651 107 119 150
1.358804 -2.577715 7.886049 188 203 213
1.835645 -2.569740 11.361362 4 10 22
0.479452 -1.547962 4.884391 85 102 140
0.476982 -1.215161 4.662760 0 1 5
0.513920 -1.197859 4.651160 0 4 9
0.516348 -1.206651 4.652292 54 56 64
0.602528 -1.797963 4.922184 97 107 139
0.670229 -1.759618 4.843369 105 115 133
1.516005 -1.997303 7.111596 74 83 111
1.934515 -2.190289 7.887965 34 43 54
0.757008 -1.741589 4.784323 118 125 158
0.760382 -1.727890 4.775703 69 75 97
0.774785 -1.716949 4.761738 191 198 212
0.774785 -1.716949 4.761738 191 198 212
0.832686 -1.680333 4.730293 98 102 121
0.832686 -1.680333 4.730293 98 102 121
0.921772 -1.622296 4.671770 76 86 122
0.951985 -1.594108 4.642850 70 80 115
0.954380 -1.711932 4.614287 57 74 101
0.966877 -1.287395 4.655663 15 19 20
0.976011 -1.543258 4.626431 134 149 175
0.989289 -1.546481 4.614949 76 90 120
1.003171 -1.550635 4.600178 179 186 208
1.003171 -1.550635 4.600178 179 186 208
1.006749 -1.530218 4.609994 60 77 118
0.964045 -0.100360 4.454092 120 135 131
0.962380 -0.031661 4.440496 3 13 12
0.972155 -0.405344 4.472113 128 141 142
0.936534 -0.198533 4.105333 124 136 134
0.970844 -0.228544 4.466357 107 121 122
0.970790 -0.268029 4.464292 122 135 136
0.976741 -0.427185 4.474644 122 130 130
0.952281 0.431188 4.346031 0 2 4
0.957931 0.342755 4.379277 93 107 106
0.973677 -0.131058 4.454253 107 122 120
0.947426 0.635586 4.280838 2 7 3
0.922950 1.049370 4.096490 78 89 88
0.957981 0.400612 4.355245 134 140 143
0.959917 0.368907 4.364430 121 132 133
0.959917 0.368907 4.364430 121 132 133
0.973184 -0.013123 4.443963 133 147 147
0.979322 -0.262916 4.466585 19 28 28
0.944049 0.773567 4.224928 127 138 133
0.969501 0.165722 4.407317 142 156 152
0.963710 0.438931 4.346700 133 144 140
0.963939 0.439862 4.348607 133 144 140
0.993461 -0.581596 4.483431 91 104 104
0.967301 0.375637 4.363804 3 11 17
0.967301 0.375637 4.363804 3 11 17
0.986145 -0.255121 4.463937 112 127 129
0.990539 -0.412540 4.475204 99 110 113
0.947999 0.794146 4.212354 127 138 136
0.986317 -0.181244 4.458229 116 132 129
0.992364 -0.336815 4.478572 108 125 120
0.979717 0.051236 4.419469 116 131 126
0.999601 -0.705131 4.482736 88 100 100
0.980772 0.120861 4.420385 117 133 130
0.974726 0.308948 4.382648 121 132 136
0.983933 -0.004891 4.437926 31 44 48
1.039937 -1.495427 4.576747 73 80 103
1.039937 -1.495427 4.576747 73 80 103
0.965025 0.606338 4.295666 119 132 127
0.962521 0.634824 4.280315 122 132 128
0.916006 1.346626 3.935061 129 135 132
0.976110 0.349360 4.373951 131 146 153
1.042366 -1.645992 4.539491 192 203 214
0.999492 -0.401158 4.480256 41 53 54
0.991968 -0.139765 4.452657 30 42 46
0.994749 -0.246121 4.465478 40 54 63
1.001186 -0.438355 4.479478 95 104 106
0.972582 0.484858 4.327897 114 126 126
0.984396 0.149584 4.409463 116 131 131
0.942910 1.038003 4.105596 118 130 125
0.978098 0.380954 4.368119 97 105 121
0.955993 0.836278 4.204089 44 56 56
0.955993 0.836278 4.204089 44 56 56
1.004337 -0.631616 4.475519 23 34 41
0.916649 1.390936 3.896863 115 124 113
0.998210 -0.194577 4.466271 101 115 116
0.985953 0.238699 4.400797 117 131 129
0.930541 1.223115 4.004072 114 125 118
0.973448 0.558883 4.309631 37 48 59
0.988042 0.218248 4.405093 14 25 27
0.970086 0.660235 4.275588 120 134 128
0.970738 0.621020 4.288251 4 12 9
0.999104 -0.214612 4.461928 20 34 40
0.994925 0.006704 4.437622 33 45 48
0.949395 1.019240 4.117766 31 42 43
0.949529 1.019022 4.117103 31 41 44
1.050957 -1.504781 4.565102 86 94 125
0.927728 1.331401 3.941289 35 42 48
0.996080 0.103755 4.425464 44 58 64
0.924996 1.365806 3.919569 8 14 13
0.924996 1.365806 3.919569 8 14 13
0.954065 1.007089 4.126436 86 96 104
0.983804 0.483509 4.338130 42 54 62
3.513466 -0.977166 18.765478 93 105 114
0.980631 0.591440 4.301672 40 49 61
0.930041 1.379004 3.912566 116 123 118
0.961669 1.044424 4.111232 49 60 63
0.976255 0.824690 4.214510 28 33 32
1.021473 -0.426746 4.477194 25 29 32
0.951446 1.200501 4.023870 26 32 30
1.584541 -1.704666 7.198615 116 129 132
0.991547 0.655333 4.283033 116 133 136
1.022450 -0.198315 4.469777 83 93 101
1.033476 -0.836756 4.478476 2 7 9
1.021510 -0.046929 4.459480 111 123 121
1.064834 -1.614103 4.505718 64 79 108
0.996180 0.626942 4.276135 36 46 54
1.076737 -1.612807 4.491615 199 209 225
1.066847 -0.575911 4.493835 26 35 48
1.095757 -1.450866 4.517787 141 145 151
1.102607 -1.177637 4.554026 103 122 154
1.084836 -0.815349 4.480459 24 31 38
1.097626 -0.444364 4.500710 25 31 35
1.022110 -0.567568 3.789282 17 24 29
1.065020 0.856534 4.234988 38 46 48
1.134258 -1.364207 4.485542 21 32 52
1.140147 -1.409393 4.477517 175 183 188
1.118779 0.021869 4.474686 84 100 118
1.096914 0.657647 4.319368 28 44 49
1.087097 0.888754 4.231058 102 120 134
1.087097 0.888754 4.231058 102 120 134
1.145475 -1.532800 4.420966 89 104 133
1.141620 -0.683207 4.509081 76 91 108
1.071720 1.196344 4.072190 138 158 177
1.073906 1.186645 4.082057 87 107 127
1.113644 0.664640 4.319086 41 62 66
1.153498 -0.276968 4.503353 97 123 149
1.141567 0.244213 4.444365 110 128 154
1.083636 1.196116 4.079142 76 96 111
1.080485 1.262581 4.044289 18 22 18
1.731372 -1.458870 5.311255 27 41 56
1.132293 0.773112 4.294747 120 146 179
0.308977 1.297258 4.787162 28 39 47
1.186014 -0.705202 4.511122 53 67 89
1.739482 -1.441950 5.289584 109 124 157
1.162193 0.701216 4.325950 132 155 182
1.162064 0.699179 4.320733 131 153 181
1.148328 0.879894 4.252635 104 116 115
1.199021 -1.353544 4.415196 81 88 110
1.128044 1.241518 4.069256 149 169 185
1.175198 0.657595 4.341388 124 138 166
1.129729 1.248449 4.078064 151 171 187
1.206504 -0.122334 4.508915 17 29 65
1.140227 1.130047 4.127677 145 172 190
1.216738 -0.770515 4.519636 57 77 107
1.188974 0.512498 4.394339 87 106 138
1.204406 -0.003925 4.487104 101 116 126
1.218296 -0.716539 4.518895 55 73 105
1.164633 0.884969 4.258186 101 110 116
1.147287 1.127622 4.142618 143 167 190
1.213574 -0.155642 4.510925 36 47 85
1.214704 -0.183899 4.514351 36 47 82
1.213239 -1.328362 4.403785 69 81 119
1.185742 0.740921 4.318036 86 104 141
1.185324 0.767684 4.311213 83 100 142
1.187032 0.753174 4.312013 84 101 141
1.189705 0.711726 4.327525 59 76 112
1.227237 -0.685971 4.511224 23 31 38
1.220570 -0.052377 4.496083 109 126 160
1.170871 1.004451 4.211015 155 178 206
1.170726 1.018590 4.202714 159 184 210
1.217374 -1.358886 4.386835 121 122 134
1.180518 0.885305 4.261320 90 98 108
1.226808 -0.243681 4.507330 7 17 34
1.232597 -0.774026 4.502204 114 133 171
1.213840 0.377250 4.432169 145 161 198
1.143509 1.346242 4.022519 71 86 118
1.234315 -0.443996 4.520464 135 152 175
1.229375 -0.216418 4.509607 139 152 173
1.222808 -1.329815 4.393939 189 196 210
1.235048 -0.460989 4.517017 16 35 50
1.198760 0.708128 4.326932 126 140 179
1.227410 -0.025178 4.492375 30 38 74
1.151247 1.320467 4.036493 57 68 94
1.238757 -0.879625 4.492002 113 126 141
1.172395 1.129857 4.150980 149 175 201
1.211713 0.628763 4.354786 139 161 194
1.150134 1.366059 4.011944 81 96 130
1.229839 -1.331282 4.377324 148 155 158
1.233360 -1.320306 4.379976 166 175 194
1.257197 -0.769427 4.511786 81 99 143
1.248713 -0.256840 4.501504 48 59 99
1.245942 -1.087967 4.432050 26 36 54
4.580870 0.143579 17.217766 157 169 198
1.174780 1.333384 4.050055 141 161 191
1.263202 -0.451544 4.503338 73 94 116
1.253451 0.146040 4.467335 197 220 245
1.269004 -0.250602 4.503536 105 119 159
1.264862 -0.011651 4.486381 123 136 172
1.254275 -1.267244 4.358213 20 26 43
1.258055 -1.276189 4.356471 23 33 62
1.266569 0.210256 4.456533 161 174 205
1.265617 -1.384362 4.322983 70 86 131
1.258829 -1.419508 4.299703 73 94 129
1.239691 0.986399 4.248137 150 172 201
1.276356 0.452445 4.410035 17 28 38
1.294219 -0.834235 4.445436 103 121 158
1.276175 -1.291522 4.326679 112 121 142
1.309375 -0.188286 4.480341 125 140 172
1.322789 -0.204846 4.477718 148 162 184
1.328977 -0.365613 4.467130 74 88 128
1.330926 -0.792064 4.416007 156 169 199
2.527872 0.285811 7.900302 146 157 185
1.344483 0.004600 4.448505 17 25 33
1.337586 0.650868 4.352536 12 19 40
1.360132 -0.440590 4.444476 119 134 172
1.321289 -1.369227 4.212170 207 218 228
2.528253 3.387041 9.501163 154 163 187
1.330330 -1.240825 4.258223 190 197 208
1.359144 -0.623575 4.420415 127 136 159
1.319006 1.133343 4.204034 140 157 191
1.334846 -1.268828 4.246516 77 82 117
1.374574 -0.243259 4.448642 103 120 159
1.374574 -0.243259 4.448642 103 120 159
1.379807 0.032487 4.447731 151 162 178
1.379534 -0.435343 4.432260 122 134 176
1.380945 0.207175 4.435550 165 175 196
1.499801 -0.158362 4.207123 171 177 190
1.381019 0.447266 4.403073 17 20 37
1.382723 -0.628255 4.390642 15 21 23
1.551483 0.425476 4.334456 42 51 63
1.394244 -0.217913 4.436696 23 29 47
1.396550 -0.275586 4.434467 16 23 50
1.396550 -0.275586 4.434467 16 23 50
0.434798 1.182076 4.709402 6 9 16
1.364332 0.998451 4.261490 26 28 42
1.396298 0.477520 4.404186 23 32 55
2.213374 1.287672 7.000745 18 26 44
1.397060 0.460667 4.407168 18 24 39
1.360309 -1.211185 4.215166 202 204 215
1.424327 1.530529 5.104635 166 183 205
1.403626 0.451582 4.406898 157 166 181
1.407534 -0.377114 4.420210 136 150 180
1.397891 0.618588 4.373464 134 141 179
1.412578 0.023643 4.436649 182 195 205
1.412731 -0.394663 4.420970 127 143 170
1.378407 1.049809 4.250906 137 150 181
47.862133 37.055855 170.391800 169 179 193
1.409998 0.560374 4.379425 70 79 122
1.359565 1.352095 4.129734 147 165 202
1.350422 1.423178 4.090135 118 134 162
1.363028 1.328655 4.138548 134 151 193
1.422037 0.455695 4.406065 141 150 175
1.370506 -1.312352 4.142727 202 212 214
1.420024 0.567888 4.382119 137 145 188
1.412653 0.885576 4.309247 106 118 139
1.384518 -1.203676 4.173768 141 149 177
1.382214 -1.286952 4.138699 114 131 165
1.382694 -1.294866 4.129734 43 58 84
-1.934237 2.627879 9.255393 47 73 96
-1.773088 4.938900 10.293125 130 146 183
-0.033010 -0.507746 2.473986 94 105 123
-16.836361 11.203662 44.516647 88 102 105
-0.850143 -4.709968 12.713536 46 56 88
0.311432 -0.449056 2.313558 83 93 110
-0.401019 0.089725 4.013248 7 7 9
-0.385906 -3.758986 10.549919 29 38 61
-0.392120 0.095556 4.010102 0 0 3
-0.379377 0.060161 4.071379 7 6 6
-0.344170 0.150981 4.021452 113 127 132
-0.225319 0.209188 4.091580 10 7 7
-0.199151 0.076220 4.082095 107 126 131
-0.168611 0.202972 4.153785 81 109 119
-0.164360 0.155073 4.178355 88 108 111
-0.136078 -1.571793 5.188221 68 75 86
0.034252 0.516525 4.030862 6 25 37
0.025711 0.524497 4.070755 47 73 88
-0.247407 0.460864 4.673011 94 114 125
0.840936 -1.391344 4.874667 173 181 200
-1.350494 1.180365 3.776970 94 119 160
-1.453140 0.202256 4.083147 63 97 139
-1.354107 1.079318 3.805502 1 5 14
-1.477595 -0.100627 4.182484 98 130 157
-1.344418 1.119013 3.808040 130 155 182
-1.403095 0.495782 3.990362 92 129 160
-1.346653 1.018161 3.840993 120 163 187
-1.333503 1.069716 3.806578 83 98 121
-1.317307 1.274760 3.761583 78 104 142
-1.644159 -1.878549 4.743134 152 165 185
-1.343152 0.943571 3.860108 42 83 106
-1.343152 0.943571 3.860108 42 83 106
-1.666845 -2.178293 4.839588 148 168 192
-1.296994 1.341349 3.737486 123 145 179
-1.305005 0.939002 3.775141 138 177 205
-1.375357 0.561328 3.977157 84 107 119
-1.353585 0.727923 3.922513 50 76 115
-1.309758 1.160348 3.795792 47 75 115
-1.345335 0.795614 3.904032 116 140 160
-1.330280 0.934368 3.867074 53 95 121
-1.639006 -2.109201 4.816318 101 117 144
-1.329900 0.848515 3.883503 130 171 190
-1.378524 0.248873 4.058460 143 171 188
-1.470502 -0.736293 4.424073 126 153 168
-1.597344 -2.179881 4.857091 215 223 227
-1.458120 -0.765752 4.440287 99 121 139
-1.351285 0.224346 4.113120 113 139 168
-1.261499 0.937812 3.895993 72 118 145
-0.192129 -0.105664 0.863895 119 139 156
-1.271246 0.801367 3.938743 23 48 76
-1.392163 -0.426636 4.333291 131 156 190
-1.325210 0.225123 4.117541 111 135 166
-1.384826 -0.391208 4.321343 20 41 55
-1.346265 -0.089639 4.221524 22 43 62
-1.380928 -0.439219 4.343345 0 17 30
-1.308989 0.232616 4.111761 12 37 60
-1.369705 -0.375597 4.323501 116 141 162
-1.212316 1.235177 3.813169 194 213 231
-1.209774 1.284170 3.804685 50 77 113
-1.366798 -0.422311 4.341183 105 122 145
-1.326730 -0.102074 4.212564 141 181 206
-1.205111 1.256352 3.810773 192 216 240
-1.223043 1.076302 3.886095 106 134 165
-1.199173 1.242619 3.809499 73 95 137
-1.282011 0.354941 4.102467 68 110 140
-1.161189 1.609671 3.719635 19 36 46
-1.252009 0.518050 4.036473 180 218 234
-1.370035 -0.661088 4.440496 119 145 179
-1.329962 -0.374478 4.322184 127 150 169
-1.295235 0.016945 4.206602 26 52 88
-1.365611 -0.669318 4.448875 57 85 115
-1.178291 1.298108 3.815990 92 116 143
-1.217888 0.528212 3.972180 76 109 121
-1.167780 1.419031 3.800126 118 151 184
-1.293402 -0.090350 4.248410 180 214 237
-1.180490 1.163333 3.860298 113 139 182
-1.218033 0.706371 3.993148 167 195 230
-1.223930 0.590566 4.020613 51 75 100
-1.177932 1.112904 3.865132 105 127 149
-1.211349 0.736399 3.985741 185 209 243
-1.319497 -0.423453 4.363869 157 186 221
-1.210058 0.708797 3.995768 49 69 104
-1.169736 1.177232 3.855137 89 113 151
-1.169697 1.194908 3.855752 86 111 138
-1.383182 -1.131042 4.616075 145 165 189
-1.159487 1.288569 3.832250 94 121 142
-1.205289 0.682042 4.000080 128 153 188
-1.202393 0.736787 3.990793 46 72 106
-1.163168 1.201079 3.854070 176 206 234
-1.156380 1.260299 3.831619 69 101 138
-1.154466 1.324628 3.827350 114 142 170
-1.214546 0.608502 4.043000 110 135 168
-1.159607 1.209224 3.848899 55 85 114
-1.297796 -0.382962 4.341038 191 219 232
-1.297796 -0.382962 4.341038 191 219 232
-1.370197 -1.142641 4.621088 52 69 99
-1.123569 1.655919 3.744004 50 74 90
-1.223519 0.338306 4.116184 112 154 183
-1.333177 -0.784857 4.507244 50 75 111
-1.264529 -0.112976 4.266486 69 105 132
-1.322304 -0.753795 4.484840 115 142 167
-1.396699 -1.461570 4.755474 39 56 76
-1.288038 -0.422492 4.369104 59 88 121
-1.222904 0.305958 4.135924 120 151 176
-1.128809 1.408281 3.804456 94 124 152
-1.128809 1.408281 3.804456 94 124 152
-1.410440 -1.776226 4.833996 115 134 166
-1.141477 1.091649 3.858452 145 170 175
-1.139421 1.323795 3.846628 182 209 226
-1.139421 1.323795 3.846628 182 209 226
-1.147997 1.503267 3.895573 178 202 205
-1.180675 0.690252 4.010375 209 232 242
-1.105652 1.675620 3.734784 175 202 204
-0.229219 0.297372 1.008136 147 180 197
-1.262728 -0.262858 4.326567 44 66 99
-1.275551 -0.421960 4.378476 177 200 220
-1.119000 1.420679 3.808675 166 195 206
-1.368162 -1.461534 4.746962 209 233 246
-0.427810 -0.465316 1.651637 114 125 130
-1.242011 -1.333961 4.706557 122 147 147
-1.246949 -1.771954 4.898516 88 109 134
-1.248439 -1.884246 4.979805 73 92 121
-1.211856 -1.586795 4.842578 11 20 31
-1.222723 -1.800630 4.928726 18 32 40
-0.934825 1.164515 3.827879 41 63 57
-0.926173 1.236134 3.838646 98 122 116
-1.174650 -1.893096 5.009470 104 126 143
-0.889913 1.784651 3.716022 251 246 237
-0.899554 1.445167 3.812262 43 66 56
-0.902409 1.408039 3.830271 36 57 43
-1.143719 -1.887468 5.025633 79 105 134
-1.123324 -1.811114 5.051828 14 39 61
-1.097972 -1.648795 4.988810 73 86 104
-0.836590 1.248635 3.921379 63 82 76
-1.055712 -2.329154 5.159090 44 56 74
-1.057751 -2.329223 5.203338 31 45 58
-0.991306 -1.627428 5.053860 0 13 20
-0.950733 -1.610212 5.018457 0 7 17
-0.237113 -0.240024 1.728999 67 87 106
-0.092373 0.051218 0.955784 86 101 131
-0.283653 -0.747932 2.386362 144 160 163
-0.027262 0.136435 0.649699 77 95 120
-0.096819 -0.345486 1.277765 63 80 104
-0.045431 -0.081723 0.811128 67 79 109
-0.081116 -0.268595 1.211543 71 82 112
-0.021196 -0.073733 0.729033 217 229 229
-0.001619 0.092438 0.766022 58 73 99
-0.007819 -0.450236 1.474795 198 212 219
0.010060 0.106102 1.075660 13 26 37
0.075031 -0.036451 1.006974 85 105 123
0.105418 -0.333890 1.351099 60 73 90
0.053178 0.195517 0.624205 37 60 61
0.118261 0.015085 0.962235 98 126 149
0.069508 0.076087 0.575326 205 223 236
0.087700 0.354266 0.690756 76 92 88
0.086514 0.117607 0.620226 92 119 153
0.103967 0.159893 0.669727 153 169 191
0.132558 0.262327 0.822755 28 46 56
0.116044 0.030550 0.716093 135 143 151
0.238462 0.232547 1.248179 42 58 72
0.161272 0.111015 0.818330 120 141 173
0.156012 0.144468 0.768031 149 178 210
0.095979 0.205759 0.553644 57 73 106
0.148547 0.296378 0.742631 145 166 198
0.198348 -0.025459 0.860389 138 153 172
0.110554 0.102860 0.580563 68 74 88
0.071099 0.157895 0.461419 142 161 179
0.099334 0.215055 0.542420 9 20 32
0.120676 0.309252 0.616216 21 41 55
0.131334 0.263566 0.637647 185 204 236
0.096186 0.123738 0.527067 72 93 126
0.142092 0.275969 0.666323 207 222 245
0.074235 0.267646 0.475431 146 166 188
-2.975515 1.069636 4.053861 95 112 166
-2.939617 0.991059 4.031847 106 120 178
-1.810403 -0.099287 2.847848 125 158 196
-2.809747 0.809847 3.909719 43 62 83
-2.809747 0.809847 3.909719 43 62 83
-1.810036 -0.086854 2.854825 146 175 202
-3.008515 1.167996 4.154612 135 144 190
-2.452538 0.434316 3.599736 85 113 150
-2.132853 0.132465 3.272873 85 118 160
-3.858078 2.765661 5.101131 170 194 213
-2.865408 0.970721 4.096429 89 109 164
-3.847923 2.776558 5.103898 74 100 120
-0.818990 -0.887186 1.842002 230 233 234
-2.087959 0.122056 3.321553 80 112 160
-2.758841 0.916852 4.077678 153 172 222
-2.766916 0.916973 4.106908 78 99 149
-1.660298 -0.249362 2.866664 181 207 236
-1.947102 -0.012559 3.194668 128 156 191
-0.841968 -0.911933 1.926951 41 52 68
-1.651414 -0.277489 2.858526 132 149 167
-0.828686 -0.877156 1.912710 43 55 66
-1.886191 -0.075856 3.131139 154 179 186
-0.864851 -0.883250 1.961452 93 113 139
-2.256959 0.283592 3.564055 94 123 165
-1.807402 -0.109732 3.063816 193 221 246
-0.851303 -0.966005 1.961456 122 136 139
-2.599026 0.663958 3.976042 102 128 163
-1.681547 -0.239673 2.928479 33 54 79
-2.216729 0.187545 3.550597 160 185 199
-2.219729 0.187146 3.555487 160 185 199
-2.219729 0.187146 3.555487 160 185 199
-2.408344 0.448259 3.772594 201 228 249
-0.836587 -0.955169 1.952553 12 20 28
-3.590372 2.734495 5.043919 148 165 179
-1.670186 -0.279455 2.941874 136 155 160
-3.418098 2.143157 4.921313 80 96 146
-3.197315 1.719802 4.686496 147 162 201
-2.071846 0.103848 3.425695 114 146 191
-1.691501 -0.250974 2.987604 136 161 188
-0.836460 -0.908285 1.976048 86 97 123
-3.403137 2.204514 4.919136 192 207 229
-2.741404 0.960649 4.211614 175 195 226
-2.401592 0.436275 3.832781 138 158 180
-2.199653 0.200920 3.601016 153 175 192
-2.140270 0.153258 3.539115 11 31 49
-2.929909 1.268039 4.452390 29 37 39
-2.108820 0.127408 3.515486 61 88 133
-1.906076 -0.091294 3.276299 87 111 119
-1.844197 -0.106455 3.207540 170 197 228
-2.222686 0.198304 3.663265 133 156 174
-3.213826 1.803719 4.787109 172 188 208
-2.712820 0.987662 4.230158 180 194 224
-2.658213 0.878820 4.176308 174 199 211
-2.905153 1.371664 4.453886 53 73 115
-3.446749 2.647495 5.044791 72 101 139
-2.736522 1.010048 4.282629 152 174 223
-2.940397 1.407669 4.521254 75 96 142
-1.656983 -0.288963 3.023962 115 134 146
-3.048896 1.695051 4.638154 132 149 187
-2.191679 0.165627 3.671930 40 61 69
-2.266565 0.342485 3.761414 140 167 203
-2.266565 0.342485 3.761414 140 167 203
-2.748601 1.045575 4.328896 71 94 147
-3.115767 1.777554 4.746294 166 184 199
-3.391409 2.679979 5.027136 77 98 125
-3.234640 2.100988 4.882509 85 99 152
-3.234640 2.100988 4.882509 85 99 152
-2.832941 1.296485 4.439094 147 169 185
-3.429431 2.688463 5.089591 95 122 149
-2.798321 0.979480 4.431114 93 119 169
-2.587636 0.763719 4.178526 153 178 213
-1.879467 -0.120621 3.343405 159 187 222
-1.843647 -0.114028 3.356267 164 191 227
-2.770719 1.330546 4.472574 90 112 152
-3.004395 1.960720 4.735724 129 143 196
-2.611984 0.996060 4.296032 143 164 217
-3.254278 2.304751 5.035408 155 175 182
-3.161050 2.181918 4.933864 124 141 194
-2.347866 0.524308 4.044182 171 199 208
-2.280870 0.380182 3.972883 147 169 200
0.112365 0.269982 0.903748 66 99 134
-2.438634 0.689847 4.162529 60 87 128
-2.872115 1.692929 4.679314 159 179 220
-2.119415 0.169654 3.792912 24 42 50
-3.072563 2.196567 4.912192 112 131 168
-2.709891 1.349727 4.497447 164 186 221
-3.112761 2.310876 4.978765 46 69 107
-1.854960 -0.113934 3.474603 139 163 197
-2.854902 1.690955 4.695889 82 103 145
-2.708538 1.409231 4.526680 63 89 135
-2.182096 0.288851 3.918295 194 216 238
-2.874277 1.808208 4.742890 78 97 142
-2.097518 0.152432 3.819699 161 185 213
-2.578891 1.101733 4.409969 152 174 228
-2.182101 0.313467 3.957469 77 107 147
-1.888838 -0.060649 3.586281 159 174 200
-2.918398 2.081216 4.832425 127 146 197
-2.647099 1.312183 4.526224 204 221 247
-2.312862 0.530762 4.145099 164 192 202
-2.999265 2.602701 4.922886 162 175 194
-2.494071 0.881391 4.373182 48 73 85
-2.582856 1.221003 4.471187 77 107 165
-2.945575 2.228814 4.901231 143 161 171
-2.894104 2.231416 4.835128 161 181 195
-2.642232 1.340324 4.566217 0 2 3
-2.569047 1.197874 4.482519 196 212 247
-2.569047 1.197874 4.482519 196 212 247
-2.664813 1.269988 4.609955 86 110 155
-2.568163 1.282777 4.479524 26 36 36
-2.581283 1.227679 4.507360 171 190 229
-1.235740 -0.916073 2.799471 5 4 4
-1.680258 -0.328299 3.376500 133 147 163
-1.930968 0.015184 3.707763 128 151 179
-2.346794 0.564548 4.252936 8 10 20
-2.346794 0.564548 4.252936 8 10 20
-1.882057 -0.093412 3.653611 86 107 113
-2.718995 1.678276 4.686678 142 160 197
-0.887354 -1.094782 2.333412 51 69 88
-2.324962 0.638252 4.223629 5 8 13
-2.673616 1.578176 4.637746 157 175 220
-2.713086 1.686371 4.684159 158 175 215
-2.106876 0.188958 3.956192 158 184 191
-1.123438 -0.915601 2.665534 104 126 145
-1.878804 -0.071724 3.661464 19 30 31
-1.878804 -0.071724 3.661464 19 30 31
-1.692202 -0.358457 3.420151 12 7 4
-2.936917 2.277434 4.961346 124 141 161
-1.293022 -0.710613 2.897480 0 3 4
-2.267174 0.551812 4.173997 203 224 239
-1.844662 -0.121588 3.631330 142 165 201
-2.636294 1.619904 4.609346 145 166 214
-1.018145 -0.964137 2.527869 6 15 22
-2.553731 1.329037 4.520236 123 137 163
-1.061804 -0.945828 2.594353 96 123 140
-1.119143 -0.865209 2.672349 116 141 162
0.510923 0.235121 0.196788 127 152 173
-2.496137 1.176720 4.461899 136 163 214
-2.528778 1.247132 4.499932 138 161 209
-1.476733 -0.546400 3.156353 2 4 3
-2.878609 2.238155 4.913913 139 165 168
-1.198255 -0.940168 2.789906 103 130 154
-1.218066 -0.829633 2.815138 49 79 119
-2.305016 0.657468 4.240433 159 191 214
-1.286679 -0.751477 2.908205 71 100 136
-1.312012 -0.725825 2.944429 139 159 167
-2.362143 0.686973 4.326829 138 171 194
-1.665421 -0.334772 3.416807 110 133 144
-2.223301 0.593567 4.145699 175 206 231
-1.852235 -0.124382 3.678853 141 165 199
-1.264699 -0.714847 2.890648 43 67 79
-2.346944 0.812873 4.324631 138 164 198
-1.148262 -0.884417 2.754203 36 57 76
-2.066582 0.179067 3.988430 102 128 145
-2.430610 1.102964 4.440783 90 117 171
-2.240272 0.543498 4.225739 157 182 190
-2.235498 0.568157 4.230497 175 198 215
-2.243205 0.557279 4.245334 82 108 124
-0.992924 -1.005102 2.563457 230 233 232
-2.755984 2.542543 4.828548 91 106 129
-2.766600 2.539728 4.847146 86 108 148
-1.261975 -0.714607 2.942414 99 124 145
-1.459844 -0.550345 3.218385 132 159 169
-1.840908 -0.124734 3.738328 145 169 204
-2.213212 0.568411 4.225777 165 195 205
-1.022681 -0.994959 2.618477 219 234 238
-2.526335 1.486466 4.610720 97 117 168
-2.421931 1.144091 4.505290 134 154 210
-2.380778 1.090118 4.455442 152 177 232
-2.380778 1.090118 4.455442 152 177 232
-2.075464 0.297909 4.083396 180 208 240
-0.935065 -1.092549 2.518774 46 67 75
-2.205312 0.525615 4.267692 58 86 99
-2.205312 0.525615 4.267692 58 86 99
-2.685298 2.519991 4.809341 92 110 142
-2.473751 1.484077 4.608434 90 109 161
-2.437742 1.504494 4.556487 152 171 221
-2.482606 1.706612 4.639306 165 183 204
-1.989703 0.184002 4.036232 30 55 84
-0.911230 -1.185961 2.536732 71 87 117
-1.840243 -0.115696 3.848772 28 49 64
-1.434223 -0.589482 3.286153 120 147 186
-1.667367 -0.337420 3.613815 145 171 187
-0.928872 -1.167250 2.571525 23 28 26
-0.937813 -1.089353 2.580430 9 13 13
-0.909431 -1.201325 2.547973 151 163 174
-0.951903 -1.132510 2.609829 146 162 166
-2.004969 0.199361 4.088717 32 49 59
-2.495960 1.853640 4.684805 147 166 216
-2.297961 1.091052 4.456096 68 92 147
-0.917171 -1.189098 2.565303 163 178 188
-2.492849 1.747724 4.695454 151 173 215
-1.189129 -0.949370 2.966205 14 31 46
-2.154634 0.547905 4.302080 175 194 201
-1.267876 -0.771850 3.077601 96 118 149
-0.919615 -1.106917 2.570283 14 29 34
-0.908124 -1.199946 2.562124 72 84 103
-2.413747 1.738764 4.600657 72 91 141
-1.959823 0.054761 4.074367 73 107 148
-2.487042 1.857353 4.730292 121 142 192
-1.903189 0.045061 4.004571 167 201 239
-1.012229 -1.070130 2.735636 67 86 107
-1.016153 -1.038455 2.740525 109 129 148
-1.789455 -0.127208 3.888943 154 186 219
-2.074125 0.418292 4.290847 98 134 177
-2.424841 1.899334 4.702398 59 80 132
-2.081261 0.557695 4.297163 168 191 202
-1.809944 -0.115713 3.944967 37 66 80
-1.269179 -0.764400 3.166881 117 145 172
-2.432116 2.062521 4.719413 106 126 170
-2.398697 1.900916 4.683463 128 150 202
-1.919520 0.084919 4.113726 115 153 191
-2.357541 1.748081 4.647078 52 74 121
-2.016346 0.430418 4.259334 70 102 149
-0.898144 -1.262941 2.647831 94 109 106
-2.321741 1.693107 4.621408 142 163 185
-0.936121 -1.218992 2.705262 122 137 145
-1.461928 -0.608191 3.489283 59 85 101
-1.949107 0.192854 4.180970 19 48 69
-1.966714 0.196047 4.218323 79 109 126
-1.966714 0.196047 4.218323 79 109 126
-0.888953 -1.278261 2.655838 215 219 222
-2.361274 2.429296 4.661564 72 91 119
-1.293014 -0.790175 3.276395 52 85 108
-1.911139 0.193201 4.180997 3 22 50
-0.900523 -1.286654 2.697781 98 109 103
-1.997447 0.533135 4.291798 80 105 120
-1.997447 0.533135 4.291798 80 105 120
-1.788819 -0.091539 4.015080 142 173 188
-0.909920 -1.268556 2.723733 81 93 112
-2.206790 1.495586 4.559421 82 107 156
-1.993871 0.536241 4.322133 70 97 109
-2.040370 0.860997 4.377081 168 193 216
-1.879834 0.195662 4.184395 61 94 122
-0.890789 -1.310959 2.717983 217 226 228
-1.980917 0.422329 4.331615 137 170 214
-1.439370 -0.615458 3.557155 30 60 74
-2.000009 0.553910 4.354011 175 198 206
-1.795403 -0.057247 4.084306 167 198 226
-1.795403 -0.057247 4.084306 167 198 226
-1.606824 -0.379787 3.813642 31 53 60
-1.790200 -0.098575 4.090674 162 190 203
-2.113512 1.229584 4.493220 133 155 210
-1.790890 -0.042816 4.097021 99 132 166
-1.967457 0.530798 4.332505 189 217 240
-1.967457 0.530798 4.332505 189 217 240
-2.230719 1.979195 4.618405 64 83 137
-1.976848 0.608810 4.348627 153 177 206
-1.937856 0.537816 4.293110 109 132 144
-2.010559 0.774426 4.395154 79 106 141
-2.010559 0.774426 4.395154 79 106 141
-2.016418 0.762295 4.409962 142 168 206
-0.897990 -1.324638 2.768685 213 220 216
-1.871429 0.200048 4.229017 78 110 134
-1.252115 -0.786541 3.316143 116 145 163
-0.898943 -1.297613 2.777163 75 86 109
-1.412632 -0.632259 3.570187 161 193 221
-1.405113 -0.625878 3.557433 136 170 191
-1.405113 -0.625878 3.557433 136 170 191
-1.978219 0.734982 4.368884 143 168 207
-1.964125 0.743270 4.346437 77 101 140
-1.593671 -0.367975 3.859330 150 172 187
-1.864143 0.200950 4.253532 81 113 137
-0.927012 -1.310004 2.845193 112 126 147
-1.754594 -0.116346 4.111177 51 79 94
-2.155061 1.801964 4.581945 74 96 148
-1.939780 0.542718 4.359303 81 104 118
-1.939780 0.542718 4.359303 81 104 118
-1.274013 -0.822604 3.393333 50 79 93
-1.274013 -0.822604 3.393333 50 79 93
-1.424632 -0.630656 3.627132 28 61 76
-1.598303 -0.369419 3.917903 158 185 201
-1.906409 0.543070 4.344102 86 109 126
-1.913667 0.991322 4.318336 88 120 175
-1.913667 0.991322 4.318336 88 120 175
-1.918906 0.756257 4.349124 126 154 194
-1.936127 0.739694 4.388126 81 108 151
-1.291794 -0.813690 3.464457 69 103 130
-1.877482 0.519143 4.316619 106 133 169
-1.392690 -0.713155 3.630200 111 142 179
-1.809023 0.203540 4.235988 76 109 132
-1.383747 -0.667637 3.617974 166 191 220
-1.938993 0.941151 4.394596 111 146 175
-2.054283 1.692997 4.506878 63 84 131
-1.272149 -0.824015 3.454643 141 170 185
-2.067819 1.815602 4.527696 71 92 145
-1.929027 0.857688 4.399217 49 72 111
-1.929027 0.857688 4.399217 49 72 111
-0.888597 -1.391496 2.853296 0 10 18
-2.037049 1.734764 4.485877 157 181 227
-2.077659 1.796491 4.552225 141 163 211
-1.565503 -0.370131 3.914329 175 199 216
-1.991320 1.441250 4.442743 134 156 207
-1.958062 0.928939 4.454586 167 194 210
-1.807431 0.230739 4.267625 152 180 190
-1.972603 1.218129 4.455469 233 244 253
-1.810755 0.241479 4.289569 159 186 198
-2.088015 1.759510 4.607718 85 103 130
-1.699324 -0.142083 4.145486 19 39 52
-1.308939 -0.843117 3.554425 26 46 55
-1.703247 -0.128567 4.156980 95 120 135
-1.770863 0.185174 4.242742 61 91 128
-1.535843 -0.404872 3.906922 135 168 195
-1.993842 1.307268 4.515577 82 104 140
-1.783640 0.242931 4.265653 11 28 35
-1.783640 0.242931 4.265653 11 28 35
-1.990789 1.254318 4.518239 25 30 27
-1.438526 -0.633753 3.772295 133 162 178
-2.070406 1.932829 4.584230 15 16 12
-1.799418 0.215796 4.306839 78 105 123
-1.550019 -0.396847 3.943892 29 57 70
-1.978585 1.318964 4.513691 97 119 157
-1.281984 -0.850557 3.544178 93 120 134
-1.780003 0.233632 4.292018 136 161 181
-1.402864 -0.657005 3.736705 114 137 148
-1.415477 -0.632881 3.760834 59 87 101
-1.877423 0.867230 4.401808 159 185 211
-1.133248 -1.063485 3.316582 77 91 111
-1.899956 1.098791 4.424308 153 174 193
-1.844334 0.516334 4.393916 101 132 167
-1.926927 1.312067 4.455612 146 168 210
-1.900413 1.095696 4.437988 135 162 194
-2.008696 1.944069 4.527328 157 173 199
-1.304486 -0.880670 3.608159 36 60 76
-1.564415 -0.349453 4.014888 131 154 173
-1.525028 -0.401576 3.955328 128 156 177
-1.525028 -0.401576 3.955328 128 156 177
-1.964786 1.622865 4.503113 4 17 20
-1.125963 -1.032859 3.326997 102 121 139
-1.149365 -1.063290 3.369338 26 40 53
-1.134119 -1.092613 3.343865 78 99 132
